142909.89200020 485817.05100060 12.40299988
142909.81099987 485817.01700020 14.59399986
142909.81299973 485816.75300026 14.89900017
142909.59399986 485833.47499847 4.91200018
142909.66399956 485833.10599899 3.55999994
142909.68099976 485832.80799866 3.51099992
142909.68900013 485832.54700089 3.66199994
142909.68599987 485831.86199951 4.66900015
142909.70499992 485831.55900002 4.56400013
142909.67899990 485831.13999939 5.79400015
142909.57199955 485831.14399910 8.62100029
142909.35400009 485831.40099907 14.00199986
142909.34599972 485831.20899963 14.47399998
142909.59399986 485830.62199974 8.73299980
142909.77099991 485830.20400047 4.63999987
142909.20100021 485831.10000038 18.42799950
142909.17199993 485830.93400002 19.38899994
142909.33500004 485830.54899979 15.64200020
142909.69799995 485829.68600082 7.25799990
142909.87199974 485829.27099991 3.22700000
142909.19499969 485830.66300011 19.15900040
142909.28600025 485830.44899940 17.08300018
142909.28999996 485830.22200012 17.29299927
142909.20499992 485830.19000053 19.54500008
142909.78699970 485828.79999924 6.11399984
142909.23900032 485829.86899948 19.07500076
142909.88199997 485828.32900047 4.23299980
142909.25399971 485829.62299919 19.02099991
142910.07400036 485827.65600014 0.10400000
142910.00100040 485827.60899925 2.07399988
142909.18700027 485829.32900047 21.18400002
142910.01099968 485827.34199905 2.16000009
142909.20899963 485829.01499939 21.02099991
142909.37199974 485828.61899948 17.24799919
142909.70600033 485827.81500053 9.56099987
142909.19699955 485828.82600021 21.58399963
142909.73400021 485827.52899933 9.21000004
142909.20800018 485828.59700012 21.59799957
142909.41699982 485828.09099960 16.78599930
142909.45800018 485827.77300072 16.13199997
142909.57100010 485827.01199913 14.18500042
142909.43999958 485827.09799957 17.50699997
142909.57499981 485826.77000046 14.40499973
142909.50100040 485826.73200035 16.40200043
142909.58399963 485826.53000069 14.48999977
142909.98400021 485825.55299950 5.28800011
142910.01799965 485825.22699928 4.82200003
142910.21599960 485824.74099922 0.26100001
142910.02499962 485824.96199989 5.00099993
142910.08300018 485824.81800079 3.66100001
142909.37100029 485826.35499954 20.31999969
142910.00899982 485824.78899956 5.65399981
142909.42399979 485825.97800064 19.42600060
142910.01200008 485824.53400040 5.93300009
142910.01599979 485824.26099968 6.19000006
142909.43900013 485825.45899963 19.75300026
142909.43200016 485825.25300026 20.21699905
142909.72700024 485824.52099991 13.41499996
142909.44499969 485824.98900032 20.22200012
142909.68400002 485824.39599991 14.73200035
142909.49699974 485824.63500023 19.31599998
142909.50500011 485824.39200020 19.44400024
142909.64700031 485823.81500053 16.49200058
142910.15499973 485822.54899979 4.82200003
142909.55000019 485823.81800079 19.02899933
142909.67899990 485823.49600029 16.07200050
142910.17399979 485822.26099968 4.72200012
142909.51399994 485823.64800072 20.20800018
142909.69699955 485823.19000053 16.00699997
142909.50800037 485823.44099998 20.64599991
142909.69099998 485822.97999954 16.44199944
142909.86699963 485822.53800011 12.38899994
142909.51500034 485823.22200012 20.76300049
142909.85599995 485822.36400032 12.93599987
142910.19099998 485821.52099991 5.23000002
142909.89900017 485822.00200081 12.28800011
142909.52799988 485822.70299911 21.08200073
142909.85499954 485821.87999916 13.59899998
142909.57600021 485822.36499977 20.27599907
142909.56900024 485822.15999985 20.74099922
142909.59300041 485821.87700081 20.49799919
142909.85599995 485820.95800018 14.81400013
142910.08800030 485820.36899948 9.49400043
142909.81900024 485820.81399918 15.98600006
142910.10799980 485820.07999992 9.37500000
142909.82900047 485820.58099937 16.05400085
142910.12100029 485819.83600044 9.35900021
142909.98200035 485819.94300079 12.85999966
142910.12699986 485819.57299995 9.53899956
142909.87100029 485819.97400093 15.75000000
142909.99199963 485819.66600037 12.99100018
142909.83100033 485819.83699989 16.96899986
142909.84599972 485819.60300064 16.88299942
142909.99699974 485819.21899986 13.45400047
142909.91899967 485819.16399956 15.56299973
142909.99499989 485818.96899986 13.82999992
142910.24600029 485818.32600021 8.10200024
142910.05300045 485818.35099983 13.14400005
142910.04199982 485817.92300034 13.98999977
142909.99699974 485817.78700066 15.35799980
142910.11699963 485817.47699928 12.62600040
142910.04899979 485817.43499947 14.45600033
142910.12300014 485817.24300003 12.77000046
142910.12100029 485817.02400017 13.11100006
142910.08500004 485816.89399910 14.23400021
142910.11999989 485816.54400063 13.79300022
142910.12500000 485816.31500053 13.97200012
142909.95199966 485833.12699890 5.15500021
142910.03299999 485832.93700027 3.25500011
142910.04199982 485832.65299988 3.42799997
142910.04500008 485832.15800095 3.99699998
142910.05799961 485831.90699959 3.99499989
142910.05399990 485831.23900032 4.99300003
142910.03499985 485831.06699944 5.69500017
142910.07600021 485830.97500038 4.78000021
142910.13099957 485830.12899971 4.44500017
142909.55700016 485831.27599907 18.00300026
142910.15299988 485829.86400032 4.22300005
142909.51900005 485831.13199997 19.18300056
142909.57600021 485830.99699974 17.86300087
142909.53999996 485830.82600021 19.01899910
142910.22500038 485829.19799995 3.21600008
142909.57499981 485830.51000023 18.52199936
142909.67199993 485830.28100014 16.29800034
142909.53600025 485830.39399910 19.71599960
142910.31799984 485828.52799988 1.66999996
142909.52299976 485830.19300079 20.31800079
142910.27000046 485827.93700027 3.73200011
142910.43400002 485827.54700089 -0.02100000
142909.62500000 485829.27400017 18.87999916
142909.75699997 485828.70199966 16.17700005
142910.36600018 485827.23600006 2.14400005
142909.65499973 485828.71599960 18.83900070
142909.78699970 485828.39800072 15.80300045
142909.81099987 485828.12700081 15.51599979
142910.13899994 485827.33900070 7.99900007
142909.60299969 485828.39999962 20.62100029
142909.84000015 485827.82500076 15.16100025
142910.17000008 485827.02899933 7.58900023
142909.85099983 485827.54599953 15.27099991
142909.74300003 485827.55299950 18.08699989
142909.93500042 485826.86199951 13.97799969
142909.80000019 485826.97999954 17.36800003
142909.85599995 485826.84300041 16.07299995
142910.55300045 485825.14500046 0.06300000
142909.65999985 485827.06900024 20.92300034
142909.77900028 485826.77599907 18.17799950
142909.86900043 485826.55699921 16.11400032
142910.36600018 485825.34300041 4.69000006
142909.67800045 485826.78700066 20.83099937
142910.36699963 485825.10099983 5.01200008
142909.67399979 485826.59399986 21.19099998
142910.38799953 485824.84300041 4.79199982
142909.71199989 485826.28400040 20.61599922
142909.85900021 485825.92099953 17.22500038
142910.40299988 485824.58799934 4.75199986
142909.71100044 485826.04000092 20.95400047
142910.41499996 485824.30900002 4.80299997
142909.80900002 485825.53899956 19.06599998
142909.83899975 485825.23999977 18.67600060
142910.08100033 485824.64200020 13.10999966
142909.88599968 485824.91500092 17.88400078
142910.09599972 485824.39399910 13.05599976
142910.00800037 485823.91699982 16.01700020
142910.49199963 485822.71599960 4.93400002
142910.03899956 485823.62899971 15.57299995
142909.86699963 485823.57600021 20.18700027
142909.97700024 485823.29999924 17.65699959
142910.21700001 485822.69799995 12.14099979
142910.22399998 485822.45000076 12.30700016
142910.55700016 485821.61800003 4.69799995
142909.95800018 485822.88599968 18.71899986
142910.23400021 485822.19099998 12.37800026
142910.23499966 485821.95000076 12.68400002
142909.90600014 485822.53000069 20.52799988
142910.24300003 485821.68300056 12.83199978
142910.26700020 485821.39100075 12.59899998
142910.60799980 485820.53100014 4.79099989
142909.96800041 485821.91200066 19.72400093
142910.40699959 485820.80400085 9.69499969
142910.62500000 485820.25499916 4.71799994
142910.20499992 485821.08300018 14.62699986
142910.63500023 485819.99600029 4.80499983
142910.15799999 485820.95100021 16.05500031
142910.22799969 485820.77300072 14.45300007
142910.65600014 485819.68700027 4.66300011
142910.22700024 485820.55100060 14.77299976
142910.66399956 485819.44000053 4.77799988
142910.23200035 485820.31500053 14.96899986
142910.67500019 485819.18700027 4.83400011
142910.30399990 485819.89999962 13.63300037
142910.70499992 485818.87700081 4.46999979
142910.50699997 485819.13400078 9.31000042
142910.72900009 485818.56599998 4.24100018
142910.32600021 485819.36000061 13.78899956
142910.52099991 485818.86100006 9.32999992
142910.37699986 485819.02599907 12.88399982
142910.53899956 485818.61100006 9.18700027
142910.41300011 485818.67399979 12.42000008
142910.51000023 485818.42300034 10.19099998
142910.40900040 485818.45899963 12.80599976
142910.42300034 485818.19199944 12.79800034
142910.37199974 485818.10600090 14.24400043
142910.44699955 485817.91399956 12.54699993
142910.36900043 485817.85899925 14.63799953
142910.35700035 485817.64500046 15.24100018
142910.38899994 485817.34000015 14.82400036
142910.14299965 485833.54899979 5.30700016
142910.15499973 485833.31499863 5.30299997
142910.25599957 485833.07899857 2.94899988
142910.17599964 485833.02299881 5.14599991
142910.24499989 485832.86299896 3.53800011
142910.19200039 485832.74900055 5.07100010
142910.24400043 485832.62900162 3.87700009
142910.21300030 485832.45800018 4.92799997
142910.26299953 485832.13499832 4.03800011
142910.27299976 485831.87700081 4.13299990
142910.21399975 485831.77099991 5.81599998
142910.28699970 485831.60099983 4.13700008
142910.26799965 485831.20400047 5.17000008
142910.26000023 485830.96199989 5.66499996
142909.75000000 485831.49300003 18.36400032
142910.34599972 485830.08399963 4.59399986
142909.75500011 485831.24200058 18.58399963
142910.38799953 485829.74099922 3.94300008
142909.78400040 485830.94099998 18.22699928
142909.77900028 485830.70400047 18.65699959
142910.44299984 485829.12299919 3.32299995
142909.76799965 485830.52499962 19.17000008
142910.54199982 485828.45299911 1.61600006
142909.78899956 485829.98999977 19.34499931
142910.48099995 485828.10099983 3.70499992
142910.65200043 485827.69099998 -0.22800000
142910.50300026 485827.80500031 3.52699995
142910.66300011 485827.41900063 -0.18200000
142909.98499966 485828.56900024 16.10899925
142909.88899994 485828.56699944 18.62500000
142910.02900028 485828.22800064 15.39299965
142910.06200027 485827.94499969 14.90999985
142910.26200008 485827.46400070 10.32400036
142910.39099979 485827.15200043 7.35500002
142909.90200043 485828.10199928 18.92799950
142910.08899975 485827.64800072 14.60299969
142910.09799957 485827.39299965 14.71199989
142910.15200043 485827.02300072 13.79800034
142910.05399990 485827.02700043 16.35000038
142910.59200001 485825.71899986 3.98900008
142910.58800030 485825.47999954 4.42500019
142909.89500046 485826.93199921 20.67200089
142910.01099968 485826.64800072 18.01000023
142910.59099960 485825.23100090 4.67700005
142909.93700027 485826.38800049 20.30200005
142910.06400013 485826.07699966 17.38400078
142909.92199993 485826.20100021 20.93600082
142909.93799973 485825.92399979 20.89599991
142910.04899979 485825.65099907 18.35799980
142910.10400009 485825.07900047 17.66099930
142910.31099987 485824.56599998 12.89500046
142910.12199974 485824.79000092 17.58799934
142910.25599957 485823.75300026 15.44200039
142910.13000011 485823.55599976 19.03700066
142910.42800045 485822.81100082 12.20100021
142910.15999985 485823.27099991 18.63100052
142910.45400047 485822.53499985 11.88399982
142910.18799973 485822.97599983 18.27300072
142910.46199989 485822.28899956 11.99400043
142910.16800022 485822.78100014 19.07200050
142910.15100002 485822.59300041 19.77000046
142910.45400047 485821.59900093 13.14400005
142910.80700016 485820.70899963 5.05900002
142910.17800045 485822.07699966 19.73999977
142910.40299988 485821.26300049 14.92099953
142910.63199997 485820.68300056 9.67800045
142910.84300041 485820.14999962 4.84800005
142910.44200039 485820.93300056 14.34300041
142910.44900036 485820.67000008 14.52299976
142910.39700031 485820.60000038 15.98299980
142910.53100014 485820.25900078 12.91399956
142910.43900013 485820.00900078 15.67000008
142910.89500046 485818.84399986 5.23899984
142910.58500004 485819.39699936 12.65100002
142910.59200001 485819.15600014 12.80300045
142910.57600021 485818.95899963 13.48999977
142910.61999989 485818.84499931 12.48299980
142910.76399994 485818.47599983 9.19099998
142910.54199982 485818.79400063 14.61100006
142910.63300037 485818.55800056 12.51500034
142910.62500000 485818.33300018 13.03400040
142910.74699974 485818.01899910 10.24899960
142910.59099960 485818.19499969 14.09399986
142910.64400005 485818.05900002 12.89400005
142910.63000011 485817.63100052 13.81700039
142910.63099957 485817.41799927 14.07199955
142910.29100037 485833.92900085 4.45599985
142910.28199959 485833.50899887 5.27299976
142910.33500004 485832.65599823 5.01300001
142910.35900021 485832.39500046 4.74700022
142910.39099979 485832.09700012 4.28000021
142910.40600014 485831.82799911 4.26200008
142910.42500019 485831.52599907 4.16699982
142910.37500000 485831.42799950 5.60300016
142910.40400028 485831.13400078 5.25600004
142910.53699970 485830.82099915 2.17600012
142910.43200016 485830.83099937 4.90500021
142910.08100033 485831.42399979 13.35000038
142909.95100021 485831.26600075 16.99600029
142910.48799992 485829.99099922 4.54300022
142909.98099995 485830.94199944 16.65600014
142910.53400040 485829.62599945 3.83699989
142909.91399956 485830.63199997 18.79299927
142909.99699974 485830.43799973 16.90900040
142910.57400036 485829.05999947 3.54500008
142910.53600025 485828.68000031 5.04699993
142910.68299961 485828.32699966 1.64900005
142910.55000019 485828.41099930 5.04099989
142910.57600021 485828.13800049 4.73899984
142910.78999996 485827.62199974 -0.21200000
142910.64500046 485827.73600006 3.45600009
142910.80599976 485827.34700012 -0.27399999
142910.82900047 485827.04199982 -0.45500001
142910.03899956 485828.47599983 18.42600060
142910.39799976 485827.60700035 10.13000011
142910.88099957 485826.43600082 -1.03199995
142910.06299973 485828.20599937 18.13800049
142910.40699959 485827.37299919 10.20800018
142910.54800034 485827.03199959 6.95699978
142910.24400043 485827.51300049 14.30500031
142910.50699997 485826.87599945 8.25100040
142910.26000023 485827.24099922 14.24699974
142910.14500046 485827.31100082 17.18400002
142910.29500008 485826.94700050 13.73900032
142910.73299980 485825.87899971 3.63400006
142909.96899986 485827.51199913 21.57200050
142910.20499992 485826.93300056 16.11899948
142910.73200035 485825.64599991 3.97099996
142909.99300003 485827.21500015 21.34600067
142910.14400005 485826.84300041 17.84700012
142910.72999954 485825.40900040 4.33500004
142910.05200005 485826.81699944 20.31500053
142910.10900021 485826.45299911 19.30999947
142910.11800003 485826.22800064 19.37899971
142910.21100044 485825.99900055 17.23600006
142910.45499992 485824.65500069 12.59200001
142910.45899963 485824.42700005 12.79100037
142910.26900005 485824.64599991 17.51600075
142910.38599968 485823.89999962 15.44699955
142910.15200043 485824.27400017 21.10199928
142910.29100037 485823.92499924 17.89900017
142910.20899963 485823.87199974 20.15399933
142910.27400017 485823.70899963 18.65500069
142910.56200027 485822.98699951 12.01700020
142910.27000046 485823.46599960 19.07799911
142910.34099960 485823.28899956 17.45299911
142910.32800007 485823.11899948 18.02300072
142910.32499981 485822.88899994 18.42300034
142910.25500011 485822.82799911 20.35199928
142910.31499958 485822.67399979 18.95800018
142910.23400021 485822.63400078 21.13599968
142910.26299953 485822.35799980 20.73399925
142910.31299973 485822.23299980 19.60600090
142910.39299965 485821.77199936 18.13400078
142910.31900024 485821.72699928 20.11899948
142910.57600021 485821.07500076 14.23200035
142910.34599972 485821.40600014 19.84099960
142910.58500004 485820.79999924 14.37399960
142910.60000038 485820.29899979 14.65100002
142910.71300030 485820.01199913 12.06900024
142910.72000027 485819.51499939 12.54100037
142910.76799965 485819.39299965 11.45100021
142910.72399998 485819.30299950 12.73700047
142910.71000004 485819.12100029 13.34099960
142910.76700020 485818.97599983 12.04300022
142910.89299965 485818.65099907 9.14799976
142910.76599979 485818.73800087 12.37399960
142910.67599964 485818.73699951 14.73099995
142910.74899960 485818.55100060 13.07999992
142910.74499989 485818.33699989 13.47299957
142910.78600025 485818.01499939 12.82600021
142910.75800037 485817.84600067 13.76700020
142910.96700001 485817.30500031 8.98999977
142910.76500034 485817.60300064 13.89900017
142910.76700020 485817.38999939 14.14700031
142910.55300045 485833.98300171 4.49499989
142910.21000004 485834.29600143 13.09899998
142910.48700047 485833.65499878 6.66599989
142910.58199978 485833.43600082 4.46500015
142910.46800041 485833.00899887 8.04500008
142910.64299965 485832.13800049 4.60500002
142910.64900017 485831.87400055 4.80800009
142910.68000031 485831.55100060 4.42399979
142910.69200039 485831.27899933 4.46299982
142910.65100002 485831.16900063 5.68499994
142910.80399990 485830.80900002 2.15100002
142910.67199993 485830.86000061 5.52299976
142910.71500015 485830.52300072 4.84399986
142910.72799969 485830.27300072 4.84899998
142910.23099995 485831.23999977 16.66699982
142910.80200005 485829.64100075 3.74499989
142910.24400043 485830.69799995 17.03000069
142910.82199955 485829.32099915 3.64800000
142910.84399986 485829.04000092 3.44199991
142910.62500000 485829.35199928 8.81499958
142910.95100021 485828.33499908 1.57700002
142910.97200012 485828.02799988 1.44200003
142910.64900017 485828.57799911 9.22000027
142910.99199963 485827.75000000 1.27400005
142910.66800022 485828.32699966 9.05700016
142910.92099953 485827.71699905 3.20400000
142910.41300011 485828.68700027 15.29500008
142910.93799973 485827.41900063 3.15899992
142911.09599972 485827.03800011 -0.48899999
142910.41300011 485828.45800018 15.56900024
142910.61699963 485827.96800041 10.88700008
142911.02299976 485826.98600006 1.50300002
142911.11299992 485826.76799965 -0.57499999
142910.27799988 485828.55299950 19.00399971
142910.63500023 485827.69099998 10.77900028
142911.10299969 485826.55500031 -0.04400000
142910.39099979 485828.04800034 16.71199989
142910.83600044 485826.96999931 6.45100021
142910.41399956 485827.75900078 16.49200058
142910.60700035 485827.29199982 12.05700016
142910.87199974 485826.64699936 5.92899990
142911.00500011 485826.32299995 2.86100006
142910.54800034 485827.18099976 13.75599957
142910.62199974 485827.00200081 12.06200027
142911.00699997 485826.06200027 3.16400003
142910.56700039 485826.89999962 13.61400032
142910.76700020 485826.41399956 9.02400017
142911.00000000 485825.84600067 3.65199995
142910.27900028 485827.37299919 20.57900047
142910.48799992 485826.86000061 15.74800014
142911.00399971 485825.60099983 3.86199999
142910.23299980 485827.25499916 21.96100044
142910.26299953 485826.92799950 21.59900093
142910.38399982 485826.40600014 19.11000061
142910.48700047 485826.15299988 16.73800087
142910.30500031 485826.39200020 21.21500015
142910.29899979 485826.18199921 21.64399910
142910.37199974 485825.73600006 20.33900070
142910.73099995 485824.61400032 12.37500000
142910.52400017 485824.92300034 17.40699959
142910.82199955 485824.18700027 10.56499958
142910.56999969 485824.56500053 16.70100021
142910.66199970 485824.09600067 14.89400005
142910.54399967 485824.15900040 17.92300034
142910.81299973 485823.48699951 11.72099972
142910.56700039 485823.88599968 17.69700050
142910.81900024 485823.25499916 11.88799953
142910.43799973 485823.96199989 20.97599983
142910.61699963 485823.51399994 16.87199974
142910.43200016 485823.73399925 21.45499992
142910.57999992 485823.36199951 18.05900002
142910.44600010 485823.47500038 21.43600082
142910.49199963 485822.62400055 21.35300064
142910.59000015 485822.37599945 19.10600090
142910.51299953 485822.36100006 21.14500046
142910.58800030 485822.17200089 19.44099998
142910.81299973 485821.60300064 14.27600002
142910.58500004 485821.96800041 19.76099968
142910.83100033 485821.34900093 14.15400028
142910.57600021 485821.75399971 20.29899979
142910.78100014 485821.00499916 15.92500019
142911.16800022 485820.02099991 7.05200005
142910.79100037 485820.77700043 15.96899986
142910.85799980 485820.36899948 14.76399994
142910.93000031 485820.18400002 13.10400009
142910.98299980 485820.04899979 11.88500023
142910.87300014 485820.09900093 14.73099995
142910.94999981 485819.90200043 12.95800018
142910.96700001 485819.85899925 12.57400036
142911.02799988 485819.46999931 11.47799969
142911.02799988 485819.25399971 11.78299999
142910.96000004 485819.22500038 13.60200024
142911.00399971 485818.85899925 12.93599987
142911.01000023 485818.59099960 13.14000034
142910.95300007 485818.31599998 14.98600006
142911.00899982 485817.47299957 14.66100025
142910.82299995 485834.31299973 5.78200006
142910.83800030 485834.02099991 5.78499985
142910.51900005 485834.27099991 13.82600021
142910.82100010 485833.57400131 6.82800007
142910.55000019 485833.98699951 13.39200020
142910.85999966 485833.27199936 6.22700024
142910.94699955 485833.06900024 4.19500017
142910.57499981 485833.67300034 13.15400028
142910.81900024 485832.66699982 8.10000038
142910.97799969 485832.29700089 4.41900015
142911.04699993 485832.13600159 2.82999992
142910.62500000 485832.63499832 13.23499966
142910.92399979 485831.93899918 6.33799982
142910.63799953 485832.35699844 13.27999973
142910.93500042 485831.65999985 6.39099979
142911.04899979 485831.16699982 4.08199978
142910.55900002 485832.10400009 15.69299984
142911.05599976 485830.93799973 4.21199989
142910.55700016 485831.87599945 16.06200027
142911.06400013 485830.68199921 4.33400011
142910.66600037 485831.36199951 13.86499977
142911.08800030 485830.36800003 4.12099981
142911.06299973 485830.21199989 4.96600008
142911.10700035 485830.10799980 3.95600009
142911.19400024 485829.90299988 1.95899999
142911.13300037 485829.56699944 3.98200011
142911.15799999 485829.28000069 3.71300006
142911.18799973 485828.97299957 3.34599996
142911.26000023 485828.80400085 1.70799994
142911.21000004 485828.66300011 3.17799997
142910.98400021 485828.99099922 8.68700027
142911.22900009 485828.40600014 3.04399991
142911.24899960 485828.10000038 2.92100000
142911.01900005 485828.41900063 8.54899979
142911.26700020 485827.82200050 2.82800007
142911.28100014 485827.54599953 2.82800007
142911.29599953 485827.28000069 2.77300000
142911.31900024 485826.96899986 2.59899998
142911.00100040 485827.51899910 10.22799969
142911.33699989 485826.70400047 2.47199988
142910.72999954 485827.95499992 16.75600052
142911.23600006 485826.72900009 5.09299994
142910.59599972 485828.04999924 20.16600037
142910.79199982 485827.57099915 15.62899971
142911.26099968 485826.43499947 4.84499979
142910.82999992 485827.21800041 15.10900021
142910.92700005 485826.98399925 12.89700031
142911.36400032 485825.91799927 2.81500006
142910.57800007 485827.60799980 21.22200012
142910.93700027 485826.73100090 12.94499969
142911.37699986 485825.66200066 2.84299994
142910.84799957 485826.73900032 15.28800011
142911.38099957 485825.43799973 3.02600002
142910.83199978 485826.52400017 16.00200081
142910.58899975 485826.88899994 21.90999985
142910.61600018 485826.59099960 21.58699989
142910.69999981 485825.92099953 20.27599907
142911.10599995 485824.92200089 10.94999981
142910.70800018 485825.64999962 20.44199944
142911.08199978 485824.72699928 11.84799957
142911.05900002 485824.55800056 12.68099976
142911.03499985 485824.37700081 13.54800034
142910.75399971 485824.80599976 20.36000061
142911.00899982 485824.17300034 14.50699997
142910.83899975 485824.35700035 18.73399925
142910.97700024 485824.01300049 15.55799961
142910.74600029 485824.39599991 21.14500046
142910.81200027 485824.22999954 19.62500000
142910.91399956 485823.97400093 17.26399994
142910.96199989 485823.85400009 16.15900040
142910.74400043 485824.17700005 21.48999977
142910.89900017 485823.78800011 17.91600037
142910.73999977 485823.95599937 21.88299942
142910.76299953 485823.67499924 21.64999962
142910.85999966 485822.99099922 20.02199936
142911.14900017 485822.02700043 13.72000027
142910.90799999 485822.40999985 19.54500008
142911.15799999 485821.77899933 13.81000042
142911.15900040 485821.56500053 14.05799961
142911.09500027 485821.51799965 15.81799984
142911.23299980 485821.16799927 12.64900017
142910.89299965 485821.77000046 20.78700066
142911.10299969 485821.23699951 15.97799969
142911.51000023 485820.20400047 6.64599991
142911.03199959 485821.15900040 17.97400093
142911.25500011 485820.59199905 12.85999966
142911.19200039 485820.55599976 14.55799961
142911.27600002 485820.34300041 12.64000034
142911.22200012 485820.27000046 14.15200043
142911.28600025 485820.10799980 12.69699955
142911.35999966 485819.68000031 11.32100010
142911.03400040 485820.25099945 19.11499977
142911.07800007 485819.93600082 18.37000084
142911.20100021 485819.62400055 15.58399963
142911.28100014 485819.41699982 13.73799992
142911.34200001 485819.26199913 12.35000038
142911.35000038 485819.01600075 12.46300030
142911.58600044 485818.41099930 7.06599998
142911.34300041 485818.80500031 12.95100021
142911.29500008 485818.69700050 14.36100006
142911.29699993 485818.45100021 14.60999966
142911.34200001 485817.85099983 14.23600006
142911.35499954 485817.56999969 14.25399971
142911.35200024 485817.36899948 14.60299969
142911.33800030 485817.16900063 15.25599957
142911.35099983 485816.90299988 15.25899982
142911.35200024 485816.67700005 15.53600025
142911.07999992 485834.13100052 6.88899994
142910.87899971 485834.33599854 11.88399982
142911.08600044 485833.86000061 7.09100008
142910.89799976 485834.06499863 11.74899960
142911.09500027 485833.61100006 7.19500017
142910.83600044 485833.97499847 13.51099968
142911.08300018 485833.40299988 7.78800011
142911.13399982 485833.04399872 6.94099998
142911.25100040 485832.77199936 4.23000002
142910.89900017 485833.36000061 12.67500019
142911.26099968 485832.51900101 4.29500008
142910.80799961 485833.33800125 15.10599995
142910.91399956 485833.09199905 12.64999962
142911.22599983 485832.36600113 5.42899990
142910.80900002 485833.11600113 15.36299992
142911.19699955 485832.21400070 6.40600014
142911.19600010 485831.97200012 6.73999977
142911.31599998 485831.69099998 3.96000004
142910.83699989 485832.56299973 15.38899994
142910.85900021 485832.29999924 15.16300011
142911.06200027 485831.82200050 10.44799995
142910.86999989 485832.04600143 15.19299984
142911.32600021 485830.97599983 4.66200018
142910.88399982 485831.75900078 15.22399998
142910.91899967 485831.44400024 14.73700047
142910.99199963 485831.03700066 13.35400009
142911.48799992 485829.86499977 1.90799999
142911.34799957 485829.96100044 5.44600010
142911.50100040 485829.59700012 1.90900004
142911.51799965 485829.29400063 1.89100003
142911.39099979 485829.36599922 5.11100006
142911.53100014 485829.03400040 1.89300001
142911.40900040 485829.09399986 4.98299980
142911.26299953 485829.20999908 8.69600010
142911.40900040 485828.86100006 5.32000017
142911.29300022 485828.89500046 8.31299973
142911.66899967 485826.80200005 1.24100006
142911.09799957 485827.97800064 14.67199993
142911.53600025 485826.91799927 4.57800007
142911.63199997 485826.68600082 2.37400007
142911.54500008 485826.65399933 4.69299984
142910.86200047 485828.06299973 20.74799919
142910.96100044 485827.82200050 18.47400093
142911.55099964 485826.39100075 4.89699984
142910.85499954 485827.84099960 21.23100090
142911.30200005 485826.75499916 10.95600033
142911.53199959 485826.19499969 5.65399981
142911.66199970 485825.87800026 2.65899992
142910.97000027 485827.33699989 18.89599991
142911.17099953 485826.84799957 14.27299976
142911.02700043 485826.95999908 17.91099930
142911.14400005 485826.67300034 15.21000004
142910.89799976 485827.01600075 21.23399925
142911.06299973 485826.61000061 17.42799950
142911.44699955 485825.43099976 8.92099953
142910.93500042 485826.46199989 20.98900032
142911.02299976 485826.24600029 18.97699928
142911.43200016 485825.24300003 9.57999992
142911.03199959 485825.99799919 19.06399918
142911.41100025 485825.06500053 10.33199978
142910.92599964 485826.02199936 21.82099915
142911.40200043 485824.84700012 10.86699963
142911.39799976 485824.63999939 11.26299953
142911.44099998 485824.53199959 10.26500034
142911.34000015 485824.57200050 12.88300037
142911.43900013 485824.32699966 10.60200024
142911.33899975 485824.35600090 13.18700027
142911.43400002 485824.12000084 11.00500011
142911.32600021 485824.12700081 13.84399986
142911.43099976 485823.86599922 11.42399979
142911.13799953 485824.37700081 18.45700073
142911.32699966 485823.90900040 14.12899971
142911.42800045 485823.65699959 11.80300045
142911.01700020 485824.47100067 21.52300072
142911.32499981 485823.70199966 14.44499969
142911.02799988 485824.22599983 21.54800034
142911.17500019 485823.86000061 18.18799973
142911.03499985 485823.97100067 21.70700073
142911.17899990 485823.61100006 18.41600037
142911.34700012 485822.94599915 14.90100002
142911.41600037 485822.77099991 13.29399967
142911.15499973 485823.20100021 19.58799934
142911.35999966 485822.68799973 14.89200020
142911.42000008 485822.53700066 13.51799965
142911.15799999 485822.97200012 19.83799934
142911.42800045 485822.29199982 13.63300037
142911.43700027 485822.03899956 13.75000000
142911.31099987 485822.12999916 16.92600060
142911.43700027 485821.81200027 14.03400040
142911.37399960 485821.74200058 15.80900002
142911.44400024 485821.56500053 14.19799995
142911.45400047 485821.32999992 14.25500011
142911.80000019 485820.45299911 6.31400013
142911.46199989 485821.04899979 14.42700005
142911.28499985 485821.26300049 18.75099945
142911.60599995 485820.45100021 11.43000031
142911.24100018 485821.17399979 20.03599930
142911.26200008 485821.12100029 19.55800056
142911.64099979 485820.15900040 10.90499973
142911.27799988 485820.85099983 19.51300049
142911.31999969 485820.74300003 18.54400063
142911.30599976 485820.51799965 19.20299911
142911.57999992 485819.82200050 12.96500015
142911.34799957 485820.16699982 18.57999992
142911.63500023 485819.43700027 12.04699993
142911.49400043 485819.57200050 15.55599976
142911.56200027 485819.39800072 14.00399971
142911.48299980 485819.37400055 16.09000015
142911.57100010 485819.15099907 14.09899998
142911.85200024 485818.43099976 7.68599987
142911.64000034 485818.71500015 12.88500023
142911.78100014 485818.35199928 9.66100025
142911.58199978 485818.65099907 14.46199989
142911.50599957 485818.62999916 16.48500061
142911.63000011 485818.09499931 13.95899963
142911.63000011 485817.84799957 14.27600002
142911.55799961 485817.55299950 16.58099937
142911.27400017 485834.15999985 7.65600014
142911.35099983 485833.74000168 6.20400000
142911.12300014 485834.04399872 11.76299953
142911.30300045 485833.63000107 7.61299992
142911.04599953 485833.99499893 13.85700035
142911.10099983 485833.86800003 12.58300018
142911.38899994 485833.20199966 5.91599989
142911.38099957 485832.96400070 6.45699978
142911.49600029 485832.44499969 4.10400009
142911.03800011 485833.29700089 15.00000000
142911.14400005 485833.05199814 12.55700016
142911.51200008 485832.19499969 4.03299999
142911.05700016 485833.01200104 14.88700008
142911.34000015 485832.35100174 8.31999969
142911.09200001 485832.66899872 14.43799973
142911.48999977 485831.73800087 5.22800016
142911.66399956 485831.32999992 1.19799995
142911.09500027 485832.41299820 14.69900036
142911.16800022 485832.24200058 13.01299953
142911.51200008 485831.43600082 5.04500008
142911.66499996 485831.07600021 1.50500000
142911.08800030 485832.22399902 15.12600040
142911.08600044 485831.98299980 15.52600002
142911.19699955 485831.72200012 12.95800018
142911.30599976 485831.46299934 10.41100025
142911.11299992 485831.67000008 15.21700001
142911.14000034 485831.60700035 14.60599995
142911.21800041 485831.42300034 12.80000019
142911.24600029 485831.12199974 12.45199966
142911.70100021 485830.04899979 1.95899999
142911.01399994 485831.46800041 18.10499954
142911.24800014 485830.91399956 12.69200039
142911.64299965 485829.46199989 4.22800016
142911.72500038 485829.26899910 2.36199999
142911.75899982 485828.96699905 1.87100005
142911.49899960 485829.36000061 8.18099976
142911.61200047 485829.08799934 5.54899979
142911.51299953 485829.10499954 8.13899994
142911.52499962 485828.82099915 8.21800041
142911.54300022 485828.55100060 8.10700035
142911.68799973 485827.46999931 5.74900007
142911.87800026 485827.01099968 1.36199999
142911.31700039 485828.12400055 14.62100029
142911.41300011 485827.89299965 12.41399956
142911.72200012 485827.14599991 5.28399992
142911.44499969 485827.59000015 11.98499966
142911.76399994 485826.81800079 4.62900019
142911.12399960 485828.11100006 19.69899940
142911.37399960 485827.50399971 13.92700005
142911.77700043 485826.52899933 4.66599989
142911.39700031 485827.21599960 13.72000027
142911.51099968 485826.94099998 11.11499977
142911.74800014 485826.36400032 5.64099979
142911.10099983 485827.72100067 20.84399986
142911.54100037 485826.64900017 10.71700001
142911.69999981 485826.26099968 7.04600000
142911.22799969 485827.19899940 18.19300079
142911.27200031 485827.09199905 17.17799950
142911.45100021 485826.65399933 13.04399967
142911.49199963 485826.55900002 12.14099979
142911.57299995 485826.36000061 10.26500034
142911.51500034 485826.28400040 11.90499973
142911.68200016 485825.87500000 8.04599953
142911.27400017 485826.63199997 17.75900078
142911.68500042 485825.62599945 8.29500008
142911.11299992 485826.78199959 21.80299950
142911.25399971 485826.43499947 18.55100060
142911.67099953 485825.41200066 8.95600033
142911.88599968 485824.88599968 4.01800013
142911.12399960 485826.55299950 21.81999969
142911.66100025 485825.23299980 9.46199989
142911.87899971 485824.69799995 4.45100021
142911.88099957 485824.46599960 4.70699978
142911.15600014 485826.01799965 21.68300056
142911.88399982 485824.22299957 4.94299984
142911.20800018 485825.65900040 20.79199982
142911.19299984 485825.47999954 21.43600082
142911.55799961 485824.32799911 13.36600018
142911.56400013 485824.07399940 13.55399990
142911.27400017 485824.56399918 20.52899933
142911.47799969 485824.05699921 15.85000038
142911.64700031 485823.63599968 11.97099972
142911.49199963 485823.81900024 15.80200005
142911.64799976 485823.42900085 12.21000004
142911.28600025 485824.10199928 20.83799934
142911.39299965 485823.83499908 18.39500046
142911.45100021 485823.69099998 17.06299973
142911.26900005 485823.91500092 21.54899979
142911.39000034 485823.61100006 18.77000046
142911.54199982 485823.22999954 15.27400017
142911.39299965 485823.35099983 19.04199982
142911.54699993 485822.96599960 15.51299953
142911.39299965 485823.14800072 19.30599976
142911.54300022 485822.77199936 15.86999989
142911.63599968 485822.53800011 13.72500038
142911.53600025 485822.57200050 16.30999947
142911.52999973 485822.33399963 16.79199982
142911.37699986 485822.47299957 20.60899925
142911.55799961 485822.01799965 16.47599983
142911.52000046 485821.89200020 17.66900063
142911.69200039 485821.45700073 13.72099972
142911.51299953 485821.66399956 18.15600014
142911.50300026 485821.45499992 18.66500092
142911.56499958 485821.29999924 17.26499939
142911.83899975 485820.60600090 10.99300003
142911.84799957 485820.58300018 10.78499985
142911.45600033 485821.32999992 20.07500076
142911.56200027 485821.06399918 17.67399979
142911.72799969 485820.64100075 13.86200047
142911.86200047 485820.30100060 10.80099964
142911.85099983 485820.12500000 11.31999969
142911.48200035 485820.84600067 20.03899956
142911.75000000 485820.16500092 13.92700005
142911.64299965 485820.20000076 16.69599915
142911.79100037 485819.82099915 13.30300045
142911.71199989 485819.77099991 15.46000004
142911.79699993 485819.55400085 13.51500034
142911.85599995 485819.40200043 12.15799999
142911.66399956 485819.67499924 16.82299995
142911.81200027 485819.29800034 13.45699978
142911.71899986 485819.29700089 15.89099979
142911.62300014 485819.31399918 18.40500069
142911.73400021 485819.02799988 15.86699963
142911.85799980 485818.71100044 13.04800034
142911.64000034 485819.04500008 18.29899979
142911.73900032 485818.79100037 16.04400063
142911.85400009 485818.49699974 13.43999958
142911.85599995 485818.26199913 13.71399975
142911.87300014 485817.98900032 13.58300018
142911.82900047 485817.87199974 14.90200043
142911.82199955 485817.64800072 15.41300011
142911.82600021 485817.43499947 15.59399986
142911.86200047 485817.10300064 15.08199978
142911.56900024 485834.44699860 6.61399984
142911.58399963 485834.19100189 6.55700016
142911.60700035 485833.87300110 6.37500000
142911.35099983 485834.21200180 12.63500023
142911.65499973 485833.51399994 5.61999989
142911.36900043 485833.95199966 12.52099991
142911.64999962 485833.30300140 6.02299976
142911.41699982 485833.61399841 11.71700001
142911.67000008 485832.77000046 6.20400000
142911.76099968 485832.55899811 4.09499979
142911.31700039 485833.34199905 14.71399975
142911.41199970 485833.11999893 12.50699997
142911.33300018 485833.09299850 14.62699986
142911.43900013 485832.84500122 12.17000008
142911.60700035 485832.45299911 8.27200031
142911.72399998 485832.18099976 5.57499981
142911.45400047 485832.58200073 12.11800003
142911.61900043 485832.19699860 8.30500031
142911.36800003 485832.52999878 14.47200012
142911.39999962 485832.20600128 14.06599998
142911.41199970 485831.97299957 14.05900002
142911.93500042 485830.74399948 1.96000004
142911.47700024 485831.57200050 12.88599968
142911.57800007 485831.33300018 10.54399967
142911.78699970 485830.84099960 5.70699978
142911.25300026 485831.85899925 18.39200020
142911.27900028 485831.56699944 18.11499977
142911.52700043 485830.97999954 12.37399960
142911.27400017 485831.36700058 18.50600052
142911.53100014 485830.75699997 12.55399990
142911.27099991 485831.12700081 18.90600014
142911.90600014 485829.61800003 4.21799994
142912.05399990 485828.76099968 1.50899994
142912.06799984 485828.49600029 1.46200001
142911.85799980 485828.27300072 7.29300022
142911.89000034 485827.99099922 6.83300018
142911.92599964 485827.67000008 6.31400013
142911.68599987 485828.00900078 12.18799973
142911.96700001 485827.32999992 5.69600010
142912.04699993 485826.69599915 4.43800020
142912.11699963 485826.52599907 2.83200002
142911.40999985 485828.01399994 19.41600037
142912.04599953 485826.47100067 4.76399994
142911.35900021 485827.89200020 20.92000008
142912.06000042 485826.18799973 4.78200006
142911.97500038 485826.17499924 7.03200006
142911.79500008 485826.40299988 11.47399998
142911.80900002 485826.12899971 11.48200035
142911.39299965 485826.89299965 21.38800049
142911.51399994 485826.59399986 18.58799934
142911.90400028 485825.64100075 9.62500000
142911.50899982 485826.38899994 18.99200058
142912.06099987 485824.83099937 6.57200003
142911.41899967 485826.17799950 21.64999962
142912.08300018 485824.54500008 6.40299988
142912.14299965 485824.39699936 5.01900005
142911.49100018 485825.74099922 20.34600067
142912.14000034 485824.13999939 5.43200016
142912.13700008 485823.92900085 5.80800009
142912.13399982 485823.70199966 6.18499994
142912.13599968 485823.46999931 6.43800020
142911.82800007 485824.00099945 13.81999969
142912.13599968 485823.23800087 6.75699997
142912.19200039 485823.09900093 5.47499990
142911.55900002 485824.43300056 20.32999992
142911.66699982 485824.16200066 17.82900047
142911.75100040 485823.72999954 16.21599960
142911.91300011 485823.32299995 12.47399998
142912.20800018 485822.59199905 5.73600006
142911.52099991 485824.06399918 21.79800034
142911.91800022 485823.07299995 12.69600010
142911.64400005 485823.49699974 19.33300018
142911.72000027 485823.30800056 17.59499931
142912.08899975 485822.38400078 9.12399960
142911.59700012 485823.39999962 20.70999908
142912.10299969 485821.90399933 9.39400005
142911.61999989 485822.88500023 20.75699997
142912.10700035 485821.66300011 9.62800026
142911.61100006 485822.67099953 21.29199982
142911.85099983 485822.06800079 15.81900024
142911.90600014 485821.92900085 14.55599976
142912.10499954 485821.42700005 9.98999977
142911.73499966 485822.14299965 18.76099968
142911.91499996 485821.69000053 14.64599991
142911.90799999 485821.48999977 15.09500027
142912.11100006 485820.97500038 10.42599964
142911.70699978 485821.75699997 19.98800087
142911.90699959 485821.25399971 15.44099998
142912.11900043 485820.71699905 10.57900047
142912.11400032 485820.45999908 11.04500008
142911.96899986 485820.61100006 14.66199970
142911.91399956 485820.54999924 16.19899940
142911.97599983 485820.39200020 14.78600025
142911.90100002 485820.33099937 16.84199905
142911.93700027 485820.00600052 16.30999947
142911.98799992 485819.87599945 15.14400005
142911.88899994 485819.90399933 17.69899940
142911.94999981 485819.74799919 16.30100060
142912.39900017 485818.60099983 6.05499983
142911.91499996 485819.61400032 17.40399933
142911.88000011 485819.48699951 18.48999977
142912.10599995 485818.90900040 13.34200001
142911.87300014 485819.25499916 19.00000000
142911.98799992 485818.95800018 16.36400032
142911.98700047 485818.71500015 16.71599960
142912.46500015 485817.48200035 5.78499985
142911.99300003 485818.48399925 16.87000084
142912.32699966 485817.38599968 9.59399986
142912.09200001 485817.74600029 15.26799965
142912.12800026 485817.40600014 14.76200008
142912.12500000 485817.21199989 15.10799980
142912.14799976 485816.90699959 14.90699959
142912.14700031 485816.65800095 15.27799988
142911.81299973 485835.14099884 8.51399994
142911.90799999 485834.45199966 6.94700003
142912.07999992 485833.34299850 3.92799997
142911.91399956 485833.49000168 8.08300018
142912.08500004 485833.09500122 4.12799978
142911.99699974 485833.07799911 6.46500015
142912.09500027 485832.84899902 4.17799997
142911.77200031 485833.34000015 11.99199963
142912.01399994 485832.77999878 6.40399981
142912.05000019 485832.46900177 5.89099979
142911.72000027 485833.00099945 13.82800007
142911.93700027 485832.49499893 8.80200005
142912.06299973 485832.20299911 5.89900017
142911.72200012 485832.76800156 14.06400013
142911.82400036 485832.53099823 11.72099972
142911.94299984 485832.25400162 8.97099972
142911.83699989 485832.24399948 11.75699997
142911.78299999 485832.12900162 13.32499981
142911.85599995 485831.95800018 11.63799953
142911.80599976 485831.84799957 13.10000038
142911.88799953 485831.40699959 11.53800011
142911.97500038 485830.94700050 9.88399982
142911.95600033 485830.73500061 10.65900040
142911.85900021 485830.76700020 13.16699982
142911.71300030 485830.87999916 16.84900093
142911.92800045 485830.36899948 11.88000011
142911.66800022 485830.52700043 18.48999977
142911.73400021 485830.37100029 16.97599983
142911.69600010 485830.25699997 18.11300087
142912.15400028 485828.92499924 7.88700008
142912.17399979 485828.63500023 7.74800014
142912.17899990 485828.39599991 7.93300009
142912.21800041 485828.09700012 7.31300020
142912.44499969 485827.55200005 2.08999991
142912.46199989 485827.28400040 2.00799990
142912.01500034 485828.09600067 12.64700031
142912.45300007 485826.59099960 3.16000009
142912.57100010 485826.30699921 0.46000001
142912.38300037 485826.53599930 5.09499979
142912.58300018 485826.04899979 0.47900000
142912.38500023 485826.28899956 5.36600018
142912.08699989 485826.76399994 12.54599953
142912.39200020 485826.02099991 5.52699995
142912.09599972 485826.53700066 12.60599995
142912.18099976 485826.33300018 10.67899990
142911.74600029 485827.15299988 20.97699928
142911.81099987 485826.99300003 19.48100090
142912.11100006 485826.25900078 12.56900024
142911.77200031 485826.85099983 20.70599937
142912.18500042 485825.84099960 11.22099972
142912.20600033 485825.56299973 11.03199959
142912.37399960 485825.15200043 7.17700005
142911.74800014 485826.46899986 21.84199905
142912.23700047 485825.26799965 10.60799980
142912.25300026 485824.98699951 10.55799961
142911.83800030 485825.74900055 20.44499969
142911.98700047 485825.13500023 17.35700035
142911.97500038 485824.95400047 17.90099907
142912.47299957 485823.72400093 6.48899984
142912.49199963 485823.43799973 6.39200020
142912.15699959 485824.01899910 14.38899994
142912.48799992 485823.19799995 6.80600023
142911.99499989 485824.20400047 18.39800072
142912.17099953 485823.76499939 14.34799957
142912.47500038 485823.01099968 7.38899994
142912.17500019 485823.55999947 14.52299976
142912.45699978 485822.85899925 8.06700039
142911.99400043 485823.76499939 19.00000000
142912.10099983 485823.49799919 16.55200005
142912.45199966 485822.62199974 8.49899960
142911.98799992 485823.52700043 19.48299980
142912.27799988 485822.80200005 12.83199978
142912.45899963 485822.35000038 8.68299961
142912.26399994 485822.59000015 13.48099995
142912.51900005 485821.95299911 7.65600014
142912.05000019 485822.91799927 18.67900085
142912.26399994 485822.37999916 13.76399994
142912.53699970 485821.46999931 7.82200003
142912.61699963 485821.27000046 5.99800014
142912.08800030 485822.34499931 18.43799973
142912.55099964 485821.18099976 7.85500002
142912.62699986 485820.98800087 6.10099983
142912.63599968 485820.73999977 6.20200014
142912.18500042 485821.68199921 16.78300095
142912.64900017 485820.51000023 6.16599989
142912.12399960 485821.59199905 18.51600075
142912.19999981 485821.39900017 16.77199936
142912.57699966 485820.44499969 8.14400005
142912.65900040 485820.23699951 6.26999998
142912.07499981 485821.47599983 19.93600082
142912.20400047 485821.14999962 16.99500084
142912.58699989 485820.18000031 8.23999977
142912.12500000 485821.11000061 19.09900093
142912.19799995 485820.92799950 17.45999908
142912.48400021 485820.20199966 10.92800045
142912.60099983 485819.90399933 8.24199963
142912.48799992 485819.96699905 11.13700008
142912.61299992 485819.64999962 8.28299999
142912.49499989 485819.72500038 11.28199959
142912.62500000 485819.39299965 8.30099964
142912.71500015 485819.16500092 6.25899982
142912.28299999 485820.00300026 16.45599937
142912.44799995 485819.58300018 12.69999981
142912.60799980 485819.17300034 9.03100014
142912.72500038 485818.87599945 6.36800003
142912.18799973 485820.00699997 18.94199944
142912.27400017 485819.78800011 16.98299980
142912.19600010 485819.76399994 19.06299973
142912.28199959 485819.05999947 17.73399925
142912.58899975 485818.27199936 10.74300003
142912.78899956 485817.75699997 6.16499996
142912.64799976 485817.88999939 9.72200012
142912.78800011 485817.52599907 6.49900007
142912.67300034 485817.38999939 9.72599983
142912.67599964 485817.12899971 10.00199986
142912.68400002 485816.85899925 10.12699986
142912.48700047 485817.16799927 14.89000034
142912.05900002 485835.10100174 8.55300045
142912.02200031 485834.73699951 10.01299953
142912.03400040 485834.47600174 10.06400013
142912.19699955 485833.62300110 6.93599987
142912.30799961 485833.36500168 4.34100008
142912.21800041 485833.35300064 6.73699999
142912.32299995 485833.11000061 4.29500008
142912.05099964 485833.47999954 10.91899967
142912.16699982 485833.21400070 8.26599979
142912.17899990 485832.91799927 8.30599976
142911.94299984 485833.22600174 14.10000038
142912.18999958 485832.65000153 8.37899971
142912.06099987 485832.72299957 11.66699982
142912.19099998 485832.41999817 8.65799999
142912.30700016 485832.15399933 6.01300001
142912.20600033 485832.13000107 8.67000008
142912.01299953 485832.34600067 13.43999958
142912.21800041 485831.86700058 8.70300007
142912.34700012 485831.56599998 5.73699999
142912.22799969 485831.63100052 8.76399994
142912.11900043 485831.67300034 11.56099987
142912.23900032 485831.39200020 8.78699970
142911.99400043 485831.74099922 14.75399971
142912.07699966 485831.54599953 12.84099960
142912.14200020 485831.39299965 11.33899975
142912.01500034 485831.45000076 14.58899975
142912.16199970 485831.10400009 11.19699955
142912.01599979 485831.21599960 14.89900017
142912.19099998 485830.80200005 10.84399986
142912.25800037 485830.64399910 9.30500031
142911.99499989 485831.05500031 15.66800022
142912.21000004 485830.54400063 10.68099976
142911.97799969 485830.86100006 16.35799980
142912.30300045 485830.09000015 8.85400009
