142960.09000015 485731.18000031 7.23999977
142960.31000137 485731.90999985 9.21000004
142960.97999954 485732.22000122 8.65999985
142961.65999985 485733.41999817 11.13000011
142961.75999832 485734.22999954 13.64000034
142961.81000137 485735.06000137 16.29999924
142964.00000000 485734.99000168 10.77000046
142962.95000076 485735.84000015 16.18000031
142958.50999832 485729.75000000 9.19999981
142958.56000137 485730.62999916 12.11999989
142959.00999832 485731.12999916 12.77000046
142959.66999817 485731.45000076 12.31999969
142961.29000092 485730.89999962 6.61000013
142960.22999954 485732.74000168 15.39999962
142961.24000168 485732.75000000 13.01000023
142961.40999985 485733.49000168 15.13000011
142962.02000046 485733.86000061 14.88000011
142962.20999908 485734.56999969 16.80999947
142963.11000061 485734.68999863 15.03999996
142964.16999817 485734.68000031 12.43999958
142959.00000000 485729.18000031 9.42000008
142959.61000061 485729.54999924 9.27000046
142960.70999908 485729.45999908 6.36999989
142961.18999863 485729.95000076 6.90999985
142960.29999924 485731.65999985 14.86999989
142960.65999985 485732.22999954 15.96000004
142961.59000015 485732.31000137 14.02000046
142963.45000076 485732.49000168 10.11999989
142962.88000107 485733.84999847 16.07999992
142963.22999954 485734.41999817 17.15999985
142960.33000183 485728.43000031 6.67999983
142961.00000000 485728.73999977 6.19999981
142961.36000061 485729.34000015 7.40999985
142961.79999924 485729.86000061 8.14000034
142961.47999954 485731.04999924 12.97000027
142961.61999893 485731.81999969 15.26000023
142962.95999908 485731.54999924 11.10999966
142963.66999817 485731.84000015 10.36999989
142964.12000275 485732.34000015 10.97000027
142965.93000031 485731.71999931 4.48999977
142964.01999664 485733.29999924 14.43000031
142961.25000000 485728.92000008 9.60000038
142962.06999969 485729.09000015 8.26000023
142962.47999954 485730.54000092 12.19999981
142963.09999847 485730.88999939 11.90999985
142964.04000092 485731.86000061 12.89000034
142964.69999695 485732.18999863 12.40999985
142964.26999664 485732.54000092 14.61999989
142965.63999939 485732.27999878 10.39000034
142964.72000122 485733.04000092 15.21000004
142962.79000092 485729.23999977 9.89999962
142962.79000092 485730.13999939 12.93999958
142963.72999954 485731.10000038 13.96000004
142963.95999908 485731.78000069 15.68000031
142965.08000183 485731.71999931 12.75000000
142964.97000122 485732.68000031 16.20999908
142965.70999908 485730.28000069 9.42000008
142964.62999725 485731.18000031 15.09000015
142966.55999756 485730.45999908 7.96999979
142965.22000122 485731.55999947 14.93000031
142965.58000183 485732.11999893 15.93999958
142965.58000183 485730.42000008 13.11999989
142965.41000366 485730.55999947 14.02999973
142960.88999939 485739.66999817 14.72000027
142960.33000183 485739.27999878 14.81000042
142961.66999817 485739.00999832 15.27999973
142961.13999939 485738.54999924 15.67000008
142960.40000153 485738.70000076 13.81000042
142959.65999985 485738.86000061 11.94999981
142959.40999985 485737.54999924 15.34000015
142961.84000015 485738.15000153 15.14999962
142961.22000122 485737.93000031 14.61999989
142960.61999893 485737.66999817 14.26000023
142959.56999969 485736.70000076 15.14000034
142958.93000031 485736.56000137 14.34000015
142962.02999878 485738.58000183 11.36999989
142961.58000183 485737.84000015 12.76000023
142960.77999878 485738.16999817 10.22999954
142960.66999817 485736.43000031 15.23999977
142960.00000000 485736.36999893 14.10999966
142959.40999985 485736.06999969 13.89000034
142957.97999954 485738.11000061 5.09999990
142962.79999924 485736.09999847 17.10000038
142962.02999878 485736.36999893 14.85000038
142961.13999939 485736.95000076 11.47000027
142960.75999832 485736.02000046 13.50000000
142960.04999924 485736.06000137 12.03999996
142959.29000092 485736.22000122 10.11999989
142958.43000031 485736.65999985 7.13999987
142957.84999847 485736.27999878 7.15000010
142957.75999832 485734.61000061 11.92000008
142957.13000107 485734.40999985 11.28999996
142963.36999893 485735.58000183 16.72999954
142962.72000122 485735.47999954 15.85000038
142962.22000122 485734.90000153 16.62999916
142961.52999878 485734.90000153 15.32999992
142960.40999985 485736.13000107 9.56999969
142960.34000015 485734.34999847 14.69999981
142959.77999878 485733.95000076 14.84000015
142958.65000153 485735.13000107 9.17000008
142957.81000137 485735.47999954 6.50000000
142957.77000046 485733.68999863 11.72999954
142957.16999817 485733.38999939 11.46000004
142963.18999863 485736.49000168 10.67000008
142963.13999939 485734.50999832 16.51000023
142962.15999985 485735.38000107 12.10000038
142961.86999893 485734.18999863 15.09000015
142961.18000031 485734.18000031 13.81000042
142960.86999893 485733.09000015 16.47999954
142960.06000137 485733.38999939 14.03999996
142959.45000076 485733.13999939 13.61999989
142958.84999847 485732.86000061 13.28999996
142957.95000076 485733.40000153 9.97000027
142962.52000046 485737.06000137 4.88000011
142963.43999863 485734.25000000 14.97000027
142962.95000076 485733.63999939 15.89000034
142961.65999985 485735.40000153 8.22999954
142961.59000015 485733.56000137 13.56999969
142961.22000122 485732.65000153 15.60000038
142960.56000137 485732.54000092 14.67000008
142959.77999878 485732.75000000 12.53999996
142959.25999832 485732.24000168 13.05000019
142958.15999985 485733.29000092 7.82000017
142957.45000076 485733.27000046 6.50000000
142964.23000336 485734.63999939 12.39999962
142963.47000122 485734.84000015 10.38000011
142962.72000122 485734.97999954 8.57999992
142962.06000137 485734.84999847 7.73999977
142962.15000153 485732.54999924 14.75000000
142961.59000015 485732.15000153 14.89999962
142960.91999817 485732.09000015 13.81999969
142960.43000031 485731.51000023 14.60000038
142959.09000015 485733.20999908 7.00000000
142959.08000183 485731.34000015 12.53999996
142958.49000168 485731.02000046 12.35000038
142957.45999908 485731.82999992 7.92999983
142965.01000214 485733.25999832 15.09000015
142963.63000107 485735.36999893 6.25000000
142964.48000336 485732.77000046 15.59000015
142963.99000168 485732.16999817 16.47999954
142962.33000183 485735.04000092 4.80000019
142961.72000122 485734.72999954 4.61000013
142961.25999832 485734.02999878 5.82999992
142961.29000092 485731.95000076 12.09000015
142960.91999817 485731.03000069 14.10999966
142960.15000153 485731.21999931 12.07999992
142958.68999863 485733.20000076 3.41000009
142958.49000168 485731.86000061 7.00000000
142958.38999939 485730.27000046 11.51000023
142965.54000092 485732.34999847 15.81000042
142963.83000183 485735.45000076 3.41000009
142964.83999634 485732.36000061 14.48999977
142964.38999939 485731.64999962 15.80000019
142963.65999985 485731.73999977 14.15999985
142961.84999847 485734.95000076 1.24000001
142962.61999893 485732.74000168 9.27000046
142961.25999832 485734.58000183 1.23000002
142962.02000046 485732.41999817 9.09000015
142960.97999954 485733.34000015 4.40999985
142961.81999969 485731.01000023 12.92000008
142960.33000183 485733.15999985 3.72000003
142960.00000000 485732.09000015 6.26999998
142960.06000137 485730.03000069 12.50000000
142959.45999908 485729.73999977 12.21000004
142958.68999863 485729.87000084 10.32999992
142958.06999969 485729.62999916 9.82999992
142965.44000244 485732.22000122 12.89000034
142965.00000000 485731.44000053 14.44999981
142964.41999817 485731.11000061 14.36999989
142962.65999985 485734.20000076 1.88000000
142963.43000031 485731.94000053 10.05000019
142963.15000153 485730.72999954 13.14000034
142961.54000092 485733.27000046 2.57999992
142962.54999924 485730.44000053 12.88000011
142961.68999863 485730.87000084 10.00000000
142961.09999847 485730.54000092 9.85999966
142960.54999924 485730.09000015 10.17000008
142959.95999908 485729.77000046 10.00000000
142959.40000153 485729.35000038 10.18000031
142958.66999817 485729.38999939 8.64000034
142965.63999939 485732.27000046 10.32999992
142965.44000244 485730.75000000 14.52000046
142964.84999847 485730.45000076 14.34000015
142963.88999939 485731.21999931 10.27000046
142962.74000168 485730.45000076 10.44999981
142961.81000137 485731.05999947 6.90999985
142961.22000122 485730.72999954 6.76999998
142960.50999832 485730.69000053 5.55999994
142959.79999924 485730.64999962 4.32999992
142959.20999908 485730.29000092 4.28000021
142958.36999893 485730.59000015 1.76999998
142966.26000214 485731.20999908 11.51000023
142965.81999969 485730.43000031 13.06000042
142964.87000275 485731.18000031 9.07999992
142964.08000183 485731.42000008 6.92999983
142962.84000015 485732.93999863 0.09000000
142963.11999893 485730.10000038 9.07999992
142962.58000183 485729.62999916 9.47999954
142961.90999985 485729.48999977 8.64999962
142961.24000168 485729.37000084 7.75000000
142960.50999832 485729.38999939 6.32000017
142959.97000122 485728.92000008 6.67000008
142966.43000031 485730.69000053 10.60999966
142965.87000275 485730.26000023 10.89999962
142964.91000366 485731.02000046 6.86999989
142963.16999817 485731.88999939 1.08000004
142962.34999847 485730.13999939 4.78999996
142962.09000015 485728.87999916 8.05000019
142961.43999863 485728.70000076 7.38999987
142960.63000107 485728.90999985 5.23000002
142960.25999832 485728.01000023 7.19999981
142966.02999878 485731.45999908 4.48999977
142966.47000122 485730.14999962 9.19999981
142965.69000244 485730.36000061 7.17999983
142964.81999969 485730.80999947 4.26000023
142963.29000092 485729.05999947 6.69999981
142961.66999817 485729.51000023 2.35999990
142961.54000092 485727.90999985 6.86999989
142965.84999847 485730.36000061 4.63000011
142963.58000183 485728.65999985 5.61000013
142962.79999924 485728.82999992 3.65000010
142959.88000107 485741.20000076 7.63000011
142958.34000015 485739.54999924 3.68000007
142960.29999924 485740.79000092 7.32000017
142958.70000076 485739.52000046 7.38000011
142958.34000015 485739.25000000 5.48000002
142960.47999954 485740.50999832 7.13999987
142960.20000076 485740.25999832 8.26000023
142960.06000137 485740.18000031 6.51000023
142959.09999847 485739.40000153 7.53000021
142958.88999939 485739.24000168 7.00000000
142958.56000137 485739.00999832 4.48000002
142958.31999969 485738.81000137 4.65000010
142958.02999878 485738.56999969 5.90999985
142960.41999817 485740.22000122 8.81999969
142960.52000046 485740.31999969 6.94999981
142960.68000031 485740.49000168 3.79999995
142960.06999969 485739.91999817 11.14999962
142960.08000183 485739.97999954 6.61000013
142959.59000015 485739.52999878 11.69999981
142959.11999893 485739.20000076 7.59000015
142958.88999939 485739.02000046 7.57999992
142958.59000015 485738.81999969 4.26999998
142958.09999847 485738.43000031 4.90999985
142957.88999939 485738.27000046 4.48000002
142960.88999939 485740.08000183 11.64999962
142960.70999908 485739.95000076 10.65999985
142960.38999939 485739.66999817 12.52000046
142960.24000168 485739.56999969 10.97999954
142960.25000000 485739.63999939 6.34999990
142959.29999924 485738.81000137 11.81999969
142959.33000183 485738.90000153 6.53000021
142959.11000061 485738.72000122 6.46000004
142958.86999893 485738.52999878 6.65999985
142958.77000046 485738.49000168 3.84999990
142958.50000000 485738.25999832 4.84999990
142958.25000000 485738.06000137 5.28999996
142957.99000168 485737.84000015 5.90000010
142956.66999817 485736.81000137 4.53999996
142956.52999878 485736.72000122 2.49000001
142961.04999924 485739.84000015 15.01000023
142960.84999847 485739.68999863 14.43000031
142961.25999832 485740.11000061 6.67999983
142960.59000015 485739.47999954 15.06000042
142960.79999924 485739.68999863 11.11999989
142960.41999817 485739.36000061 14.01000023
142960.74000168 485739.68999863 7.88000011
142960.33000183 485739.31999969 11.46000004
142960.72999954 485739.72000122 3.77999997
142960.11999893 485739.15000153 11.18999958
142959.84999847 485738.93000031 11.96000004
142959.93000031 485739.00999832 10.46000004
142959.70000076 485738.88000107 5.92000008
142959.47000122 485738.68999863 6.01000023
142959.22999954 485738.50999832 6.07999992
142958.99000168 485738.31000137 6.36000013
142958.90000153 485738.27000046 3.56999993
142958.61999893 485738.04000092 4.48999977
142958.38000107 485737.84999847 4.73000002
142958.45999908 485737.93000031 2.99000001
142958.15000153 485737.65999985 4.86000013
142958.00000000 485737.56999969 3.05999994
142957.34999847 485737.06000137 2.19000006
142956.95999908 485736.70999908 5.86000013
142956.31000137 485736.20000076 4.82999992
142961.20999908 485739.59999847 14.27000046
142961.00000000 485739.43000031 13.98999977
142961.16999817 485739.61000061 10.75000000
142960.74000168 485739.22000122 14.61999989
142960.58000183 485739.09999847 13.47000027
142961.29000092 485739.84000015 -0.34999999
142960.09000015 485738.77000046 9.69999981
142960.06999969 485738.79000092 5.67000008
142959.65999985 485738.43000031 9.18999958
142959.36000061 485738.16999817 10.71000004
142959.43000031 485738.29999924 4.63000011
142959.22999954 485738.15000153 3.93000007
142959.02000046 485737.99000168 3.47000003
142958.13000107 485737.29000092 2.89000010
142957.65999985 485736.90999985 3.07999992
142957.68999863 485736.95000076 2.33999991
142957.43000031 485736.72999954 3.06999993
142957.06999969 485736.41999817 5.98000002
142957.15999985 485736.50999832 3.89000010
142956.88000107 485736.25999832 5.21000004
142956.66999817 485736.09999847 4.69999981
142956.45000076 485735.93000031 4.38999987
142961.25999832 485739.50999832 12.56000042
142961.40999985 485739.65999985 9.72000027
142960.88999939 485739.18999863 15.19999981
142960.97000122 485739.27000046 13.72000027
142960.66999817 485739.00999832 15.11999989
142961.09000015 485739.45000076 7.07999992
142960.68000031 485739.06999969 10.67000008
142960.45000076 485738.88999939 10.72000027
142960.99000168 485739.45999908 0.04000000
142960.15000153 485738.63000107 12.21000004
142960.54000092 485739.04000092 4.48999977
142960.77999878 485739.29999924 -0.38999999
142959.93999863 485738.47000122 11.86999989
142960.04999924 485738.59000015 9.52999973
142960.24000168 485738.79000092 5.80999994
142959.74000168 485738.31999969 11.39999962
142960.02000046 485738.61999893 5.59999990
142959.75000000 485738.38000107 6.59999990
142958.81999969 485737.59000015 11.52999973
142958.90000153 485737.72999954 5.09000015
142958.31999969 485737.18000031 12.67000008
142958.47999954 485737.40999985 4.21000004
142958.24000168 485737.22000122 4.40999985
142958.08000183 485737.11000061 2.82999992
142957.84999847 485736.93000031 2.95000005
142957.34999847 485736.52000046 3.80999994
142957.02999878 485736.22999954 6.05999994
142956.84999847 485736.09999847 4.90999985
142956.91999817 485736.18000031 3.18000007
142956.65000153 485735.95000076 4.01000023
142961.50000000 485739.11999893 15.72999954
142961.54999924 485739.22000122 10.61999989
142961.66999817 485739.34999847 8.27000046
142961.77000046 485739.43999863 6.46000004
142961.04999924 485738.77000046 15.69999981
142961.43000031 485739.15000153 8.64000034
142961.52999878 485739.25999832 6.63000011
142961.70999908 485739.43999863 3.20000005
142961.13999939 485738.90999985 9.64000034
142960.75000000 485738.56000137 12.93000031
142960.88999939 485738.70000076 10.30000019
142960.65000153 485738.50999832 10.51000023
142960.34000015 485738.24000168 12.14999962
142960.40000153 485738.31000137 10.84000015
142960.77999878 485738.70000076 3.34999990
142960.95000076 485738.88000107 0.00000000
142960.25999832 485738.20999908 9.27999973
142960.45000076 485738.40999985 5.40000010
142960.00000000 485738.00000000 9.93000031
142960.22999954 485738.24000168 5.23000002
142959.52999878 485737.56999969 14.72000027
142960.00000000 485738.06000137 5.21999979
142959.31999969 485737.40000153 14.60000038
142959.77000046 485737.88000107 5.17000008
142959.11000061 485737.24000168 14.28999996
142959.29999924 485737.43999863 10.31000042
142959.47000122 485737.61999893 6.69999981
142958.93999863 485737.11999893 13.17000008
142959.02000046 485737.20000076 11.47999954
142958.75000000 485736.99000168 12.18999958
142959.18000031 485737.43999863 3.00000000
142958.49000168 485736.77000046 13.02000046
142958.52000046 485736.86000061 7.42999983
142958.29000092 485736.72999954 2.50999999
142957.84000015 485736.31999969 7.34000015
142957.77000046 485736.31000137 3.78999996
142957.50000000 485736.09000015 4.65000010
142957.56000137 485736.15000153 3.30999994
142957.41999817 485736.04999924 1.13000000
142961.70999908 485739.00000000 15.11999989
142961.52999878 485738.86999893 14.31999969
142961.93000031 485739.27999878 6.65999985
142961.50000000 485738.88999939 10.67000008
142961.72000122 485739.11000061 6.42999983
142961.15000153 485738.58000183 13.02000046
142960.93999863 485738.41999817 12.69999981
142961.09999847 485738.58000183 9.60999966
142961.18999863 485738.66999817 7.86000013
142960.83000183 485738.36999893 10.25000000
142961.18999863 485738.72999954 3.32999992
142961.13000107 485738.72999954 -0.08000000
142960.43000031 485738.06000137 9.18999958
142960.63000107 485738.27000046 5.25000000
142960.18999863 485737.86000061 9.64999962
142959.66999817 485737.38000107 15.47000027
142959.93999863 485737.65999985 10.07999992
142959.52000046 485737.27999878 14.07999992
142959.93000031 485737.70999908 5.59000015
142959.18999863 485737.04999924 11.46000004
142958.90999985 485736.81000137 12.56999969
142959.36999893 485737.29999924 2.75000000
142958.66999817 485736.61999893 12.89000034
142958.72000122 485736.66999817 11.80000019
142958.47000122 485736.52999878 7.38000011
142958.34999847 485736.45999908 5.09999990
142958.04999924 485736.20000076 6.67000008
142958.20000076 485736.36999893 3.21000004
142957.81999969 485736.02000046 6.63000011
142957.97000122 485736.18000031 3.24000001
142957.77999878 485736.04000092 2.26999998
142957.54000092 485735.84000015 2.42000008
142956.79999924 485735.22999954 3.82999992
142962.00000000 485738.84999847 11.89000034
142961.97000122 485738.88000107 8.10000038
142961.47000122 485738.40999985 13.39000034
142961.74000168 485738.68999863 8.18000031
142961.84000015 485738.79999924 6.23000002
142961.31000137 485738.29999924 12.14999962
142961.50999832 485738.50000000 8.34000015
142960.88000107 485737.90999985 16.13999939
142960.95000076 485737.97999954 14.75000000
142961.04000092 485738.06999969 13.03999996
142961.31000137 485738.34999847 7.78000021
142960.97999954 485738.06999969 9.68999958
142960.50999832 485737.63999939 14.56999969
142960.65999985 485737.79000092 11.57999992
142960.56000137 485737.74000168 9.06000042
142960.75999832 485737.95000076 4.96999979
142960.02000046 485737.24000168 15.34000015
142960.29000092 485737.52000046 9.80000019
142959.95999908 485737.22999954 12.02000046
142959.61000061 485736.91999817 14.65999985
142959.75000000 485737.06999969 11.72999954
142959.41999817 485736.77999878 13.81999969
142959.52999878 485736.88999939 11.65999985
142959.31000137 485736.72999954 11.32999992
142958.95999908 485736.41999817 14.02000046
142959.50000000 485736.97999954 2.51999998
142958.91999817 485736.43000031 10.02999973
142959.25000000 485736.77999878 2.94000006
142959.29999924 485736.84000015 1.80999994
142959.04000092 485736.61999893 2.42000008
142958.65999985 485736.27000046 5.86000013
142958.79999924 485736.43000031 2.56999993
142958.56000137 485736.22999954 2.81999993
142958.36999893 485736.09999847 1.87000000
142957.93999863 485735.68999863 6.59000015
142957.70999908 485735.50999832 6.59000015
142957.36000061 485735.20000076 9.40999985
142957.41999817 485735.31999969 2.56999993
142962.04999924 485738.72000122 13.60000038
142962.18000031 485738.84999847 11.14999962
142961.93000031 485738.65000153 11.57999992
142961.61999893 485738.38000107 13.27000046
142962.09999847 485738.88000107 4.11999989
142961.25999832 485738.06000137 15.88000011
142961.33000183 485738.13000107 14.52999973
142961.22999954 485738.09000015 12.11999989
142961.13999939 485738.04999924 9.47999954
142960.66999817 485737.61000061 14.22999954
142960.81000137 485737.75999832 11.39999962
142960.88000107 485737.84000015 10.00000000
142960.70000076 485737.70999908 8.98999977
142961.13000107 485738.15999985 0.41999999
142960.16999817 485737.20999908 15.26000023
142960.43999863 485737.50000000 9.65999985
142960.88999939 485737.95999908 0.63999999
142959.91999817 485737.00000000 15.75000000
142960.63000107 485737.75000000 1.19000006
142959.74000168 485736.86999893 14.78999996
142959.88999939 485737.02999878 11.72999954
142959.50999832 485736.68999863 15.02000046
142959.83000183 485737.09000015 3.41000009
142959.90999985 485737.16999817 1.71000004
142959.11000061 485736.38000107 14.00000000
142959.06000137 485736.40000153 10.10000038
142959.18999863 485736.59000015 2.39000010
142958.81999969 485736.25999832 5.57000017
142958.52000046 485736.06999969 1.86000001
142958.09999847 485735.68999863 6.11000013
142957.50999832 485735.16999817 9.46000004
142957.49000168 485735.20999908 4.38000011
142956.95999908 485734.70000076 11.65999985
142961.95999908 485738.20000076 15.72999954
142961.77999878 485738.06999969 14.89000034
142961.99000168 485738.29000092 10.90999985
142962.22999954 485738.52999878 6.44999981
142961.63000107 485737.97000122 13.51000023
142961.77000046 485738.11000061 10.81000042
142961.88999939 485738.22999954 8.53999996
142962.02000046 485738.36999893 6.09999990
142961.27999878 485737.65999985 15.98999977
142961.43999863 485737.81999969 12.93999958
142961.13000107 485737.56000137 14.47999954
142961.20999908 485737.63999939 13.02999973
142961.27999878 485737.70999908 11.64999962
142961.47999954 485737.90999985 7.78000021
142961.20000076 485737.68000031 8.71000004
142960.84999847 485737.36999893 11.22000027
142960.93000031 485737.45999908 9.56999969
142960.93999863 485737.52999878 4.80999994
142961.15999985 485737.75000000 0.38999999
142960.31000137 485736.93000031 12.90999985
142960.90000153 485737.54999924 0.87000000
142960.04999924 485736.70999908 13.67000008
142959.72999954 485736.43000031 15.60999966
142959.65999985 485736.41999817 12.27999973
142959.56000137 485736.36999893 9.81999969
142959.31999969 485736.18000031 10.00000000
142959.68000031 485736.56000137 2.20000005
142959.31000137 485736.22999954 5.34999990
142959.09999847 485736.06999969 4.88000011
142959.22999954 485736.20999908 1.95000005
142958.66999817 485735.66999817 9.39000034
142958.86000061 485735.86999893 5.15999985
142958.40000153 485735.50999832 5.17000008
142957.86000061 485735.00000000 12.23999977
142957.93999863 485735.08000183 10.51000023
142957.63999939 485734.81999969 12.05000019
142957.75000000 485734.93999863 9.47999954
142958.04999924 485735.25999832 2.58999991
142957.40999985 485734.63999939 12.21000004
142957.20000076 485734.47000122 11.88000011
142957.00999832 485734.31999969 11.07999992
142956.79000092 485734.15000153 10.88000011
142962.34000015 485738.11999893 15.50000000
142962.36000061 485738.25000000 6.53999996
142962.43999863 485738.34000015 4.98000002
142962.15999985 485738.09999847 5.98000002
142961.52999878 485737.50999832 13.71000004
142961.61000061 485737.59000015 12.13000011
142961.70000076 485737.68000031 10.56000042
142962.11999893 485738.11999893 2.30999994
142961.41999817 485737.45000076 11.50000000
142961.22999954 485737.29999924 10.89999962
142960.86000061 485736.97000122 13.71000004
142961.09999847 485737.22000122 8.96000004
142961.50000000 485737.65000153 0.82999998
142960.70000076 485736.86000061 12.46000004
142961.08000183 485737.25999832 4.67999983
142961.29000092 485737.47999954 0.54000002
142960.54999924 485736.77000046 10.73999977
142960.13999939 485736.38999939 14.56999969
142960.29000092 485736.54999924 11.56999969
142959.68999863 485736.09000015 9.90999985
142959.34000015 485735.77999878 12.64999962
142959.45999908 485735.90999985 10.06999969
142959.72000122 485736.18999863 4.34000015
142959.83000183 485736.29999924 2.06999993
142959.47999954 485735.99000168 4.53000021
142959.61000061 485736.13000107 1.79999995
142958.81000137 485735.40000153 9.34000015
142958.88000107 485735.47999954 7.75000000
142958.56999969 485735.20999908 9.56000042
142958.90000153 485735.56999969 2.03999996
142958.65000153 485735.36000061 2.65000010
142958.06000137 485734.77999878 10.92000008
142957.81999969 485734.59999847 11.06999969
142957.72999954 485734.56999969 7.86000013
142957.40000153 485734.27000046 10.39999962
142957.22000122 485734.13999939 9.23999977
142962.59000015 485737.93999863 13.13000011
142962.09999847 485737.54000092 13.86999989
142962.45999908 485737.91999817 6.98000002
142962.54999924 485738.00999832 5.28000021
142962.22000122 485737.72999954 7.15000010
142962.29000092 485737.79999924 5.75000000
142961.54000092 485737.08000183 15.88000011
142962.25999832 485737.81999969 1.96000004
142961.33000183 485736.90999985 15.71000004
142961.72000122 485737.31000137 8.10999966
142962.04000092 485737.65000153 1.79999995
142961.34999847 485736.99000168 10.81000042
142960.90000153 485736.58000183 15.22000027
142961.22999954 485736.91999817 8.75000000
142960.75999832 485736.47999954 13.69999981
142960.90999985 485736.65000153 10.51000023
142961.40000153 485737.15000153 0.69999999
142960.56000137 485736.34000015 13.06999969
142961.11000061 485736.90999985 1.79999995
142960.68999863 485736.52999878 5.69000006
142960.47999954 485736.36999893 5.32999992
142959.95999908 485735.88000107 11.47000027
142960.04999924 485735.97000122 9.61999989
142959.72999954 485735.68999863 11.64000034
142959.84999847 485735.88000107 4.17000008
142959.59999847 485735.68000031 4.57000017
142959.65999985 485735.74000168 3.26999998
142959.41999817 485735.56000137 3.36999989
142959.49000168 485735.63000107 1.92999995
142958.70000076 485734.90999985 9.30000019
142958.77000046 485734.97999954 7.82999992
142959.00999832 485735.24000168 2.28999996
142958.29999924 485734.61000061 7.98000002
142958.56000137 485734.88000107 2.09999990
142958.00000000 485734.34000015 9.88000011
142958.08000183 485734.43000031 7.98999977
142958.33000183 485734.70000076 2.11999989
142957.81000137 485734.20000076 8.98999977
142957.29999924 485733.77999878 10.43000031
142957.24000168 485733.77000046 6.23000002
142962.72999954 485737.84999847 14.15999985
142962.56999969 485737.74000168 12.88000011
142962.38999939 485737.61000061 12.14999962
142962.43999863 485737.70999908 6.82000017
142962.52000046 485737.79999924 5.30000019
142962.27000046 485737.59999847 5.59000015
142961.52999878 485736.88000107 15.65999985
142962.24000168 485737.61999893 1.80999994
142962.02000046 485737.43999863 1.65999997
142961.36000061 485736.81999969 10.13000011
142961.13000107 485736.63000107 10.23999977
142961.20000076 485736.70999908 8.73999977
142961.41999817 485736.93999863 4.30000019
142961.54000092 485737.06000137 1.97000003
142960.68000031 485736.22000122 14.69999981
142960.74000168 485736.27999878 13.47000027
142961.36999893 485736.93999863 0.72000003
142960.68999863 485736.27999878 9.97000027
142960.47000122 485736.11999893 9.67000008
142960.25000000 485735.93999863 9.57999992
142959.95999908 485735.70000076 10.96000004
142960.08000183 485735.88000107 3.61999989
142960.15999985 485735.97000122 1.85000002
142959.91999817 485735.77999878 2.00999999
142959.34999847 485735.22999954 9.52999973
142959.56000137 485735.45999908 4.78000021
142958.90999985 485734.88000107 9.25000000
142959.22000122 485735.22000122 2.27999997
142958.59999847 485734.61999893 11.05000019
142958.47000122 485734.54000092 8.88000011
142958.20999908 485734.31999969 9.65999985
142958.25000000 485734.36999893 8.67000008
142957.91999817 485734.15000153 5.67999983
142957.75000000 485734.02000046 4.21999979
142957.43000031 485733.74000168 6.34999990
142962.75999832 485737.38999939 14.35999966
142962.58000183 485737.25000000 13.60000038
142962.40000153 485737.13000107 12.69999981
142962.75000000 485737.49000168 5.94000006
142962.54999924 485737.34000015 5.44999981
142961.75999832 485736.58000183 16.29999924
142962.31999969 485737.15999985 5.42000008
142962.06999969 485736.95000076 5.90000010
142961.40000153 485736.31000137 14.65999985
142961.81999969 485736.75000000 6.28999996
142961.18000031 485736.13000107 14.55000019
142961.47000122 485736.43999863 8.68000031
142961.24000168 485736.25999832 8.69999981
142961.00000000 485736.06999969 8.97000027
142960.52000046 485735.61000061 14.34000015
142960.75000000 485735.86000061 9.44999981
142960.36000061 485735.63000107 3.28999996
142960.41999817 485735.68999863 1.91999996
142959.70000076 485735.04999924 7.67999983
142959.83000183 485735.18999863 4.73999977
142959.40999985 485734.81000137 8.92000008
142959.61000061 485735.00999832 4.69000006
142959.24000168 485734.68000031 7.71000004
142958.88999939 485734.38000107 10.40999985
142958.97999954 485734.47000122 8.39999962
142959.04000092 485734.52999878 7.15999985
142958.72999954 485734.25999832 9.06000042
142958.47999954 485734.06000137 9.61999989
142958.24000168 485733.86999893 9.81000042
142958.33000183 485733.97000122 7.65999985
142957.97000122 485733.63999939 10.93999958
142957.72000122 485733.43999863 11.31000042
142957.56000137 485733.33000183 9.80000019
142957.22999954 485733.09999847 6.57000017
142957.27999878 485733.15000153 5.46999979
142962.40000153 485736.79999924 13.98999977
142962.47000122 485736.88000107 12.64000034
142962.86000061 485737.27999878 5.13000011
142962.11999893 485736.56999969 15.06999969
142962.18999863 485736.63999939 13.71000004
142962.63999939 485737.11000061 4.88999987
142961.88000107 485736.38000107 15.27999973
142962.40999985 485736.93000031 4.92000008
142961.70000076 485736.24000168 14.47000027
142962.20000076 485736.77000046 4.55999994
142961.88000107 485736.49000168 6.44999981
142961.18999863 485735.83000183 15.67000008
142961.56999969 485736.22000122 8.05000019
142961.31000137 485736.00999832 8.65999985
142961.68999863 485736.40999985 0.97000003
142961.04999924 485735.79000092 9.39999962
142960.34999847 485735.16999817 14.56000042
142960.13999939 485735.00999832 14.31000042
142960.66999817 485735.56999969 3.02999997
142959.93000031 485734.84999847 13.81000042
142959.74000168 485734.70999908 13.10999966
142959.75000000 485734.79000092 7.86999989
142959.52999878 485734.61000061 7.86000013
142959.27000046 485734.40000153 8.43999958
142958.97999954 485734.13999939 10.02000046
142958.72000122 485733.93000031 10.72999954
142958.56000137 485733.81999969 9.23999977
142958.31999969 485733.63000107 9.48999977
142958.08000183 485733.43999863 9.72999954
142957.79000092 485733.18000031 11.40999985
142958.06000137 485733.47999954 4.86000013
142957.75999832 485733.22999954 6.48999977
142957.81999969 485733.29000092 5.05000019
142957.02999878 485732.68999863 1.94000006
142962.59999847 485736.50000000 16.82999992
142962.79999924 485736.70999908 13.02999973
142962.40999985 485736.34999847 16.28000069
142962.41999817 485736.41999817 11.64000034
142962.08000183 485736.11999893 14.03999996
142962.77000046 485736.83000183 0.52999997
142962.61000061 485736.72999954 -1.03999996
142962.13000107 485736.27999878 4.03000021
142962.24000168 485736.40000153 1.73000002
142961.27999878 485735.45000076 16.51000023
142961.59999847 485735.79999924 9.93000031
142961.72999954 485735.93000031 7.38999987
142961.90999985 485736.11999893 3.72000003
142961.18999863 485735.41999817 13.78999996
142961.29000092 485735.52000046 11.84000015
142961.43000031 485735.66999817 8.89000034
142961.70000076 485735.95000076 3.39000010
142961.59999847 485735.90999985 0.58999997
142960.54000092 485734.90999985 13.27000046
142961.04000092 485735.43999863 2.73000002
142960.86999893 485735.31999969 1.50000000
142960.11999893 485734.59000015 12.52999973
142960.65000153 485735.15000153 1.12000000
142960.15000153 485734.68000031 7.13000011
142960.29000092 485734.88999939 -1.03999996
142959.38999939 485733.99000168 13.81000042
142959.45000076 485734.04999924 12.56999969
142959.15999985 485733.81000137 13.82999992
142959.54999924 485734.22999954 5.19000006
142958.88999939 485733.63999939 9.86999989
142959.18999863 485733.97000122 2.90000010
142958.75000000 485733.56000137 7.73999977
142958.93000031 485733.75999832 3.54999995
142958.31000137 485733.20999908 7.48000002
142958.00999832 485733.02000046 3.67000008
142957.41999817 485732.50999832 6.92000008
142957.52000046 485732.61999893 4.26000023
142962.84000015 485736.54000092 15.81999969
142963.11000061 485736.81000137 10.81999969
142962.63000107 485736.36999893 15.63000011
142962.61999893 485736.40999985 11.52999973
142962.27000046 485736.11000061 13.89000034
142962.38999939 485736.24000168 11.46000004
142962.77000046 485736.68999863 -0.41999999
142962.49000168 485736.45000076 0.52999997
142961.47999954 485735.43999863 16.30999947
142961.38999939 485735.41999817 13.48999977
142961.63999939 485735.66999817 8.50000000
142961.70999908 485735.75000000 7.07000017
142961.16999817 485735.24000168 13.38000011
142961.66999817 485735.77000046 3.17000008
142961.56999969 485735.72000122 0.44999999
142960.99000168 485735.16999817 7.67000008
142961.24000168 485735.43999863 2.52999997
142960.41999817 485734.63000107 14.92000008
142961.06000137 485735.31000137 1.38999999
142960.54000092 485734.81000137 7.67000008
142960.58000183 485734.86000061 6.65999985
142960.11000061 485734.41999817 12.02999973
142960.34999847 485734.68000031 6.80000019
142959.77999878 485734.13000107 14.30000019
142959.36000061 485733.79999924 13.65999985
142959.04999924 485733.59999847 10.47999954
142959.38000107 485733.95999908 2.90000010
142959.18000031 485733.81999969 2.00999999
142958.93999863 485733.61999893 2.21000004
142958.11999893 485732.86000061 10.93999958
142958.09999847 485732.90000153 6.03000021
142957.56000137 485732.43999863 8.01000023
142957.54999924 485732.50999832 2.35999990
142963.11000061 485736.18999863 17.29999924
142962.77999878 485735.95999908 15.05000019
142962.81999969 485736.04999924 9.97000027
142962.45000076 485735.72000122 12.73999977
142962.61000061 485735.88999939 9.60000038
142962.09000015 485735.40999985 15.32999992
142962.33000183 485735.65999985 10.60999966
142961.84999847 485735.20999908 15.77000046
142961.58000183 485734.99000168 16.51000023
142961.84999847 485735.27000046 11.21000004
142961.43000031 485734.88000107 15.18000031
142961.54999924 485735.00999832 12.68999958
142961.86999893 485735.34999847 6.19000006
142961.27000046 485734.77999878 13.73999977
142961.70999908 485735.24000168 4.73000002
142961.79999924 485735.33000183 2.90000010
142961.02999878 485734.58000183 14.14999962
142961.45000076 485735.02000046 5.46000004
142961.56000137 485735.15000153 3.00999999
142961.18999863 485734.81999969 5.90999985
142961.38999939 485735.02999878 1.63000000
142960.58000183 485734.22000122 14.22000027
142960.88000107 485734.54000092 7.84999990
142961.02999878 485734.70000076 4.57999992
142961.24000168 485734.91999817 0.14000000
142960.33000183 485734.02999878 14.55000019
142960.45000076 485734.15000153 11.98999977
142960.11000061 485733.84000015 14.68999958
142960.15000153 485733.88999939 13.82999992
142960.00000000 485733.79000092 12.10000038
142960.31000137 485734.13000107 5.15000010
142960.50000000 485734.31999969 1.11000001
142960.27000046 485734.15000153 1.04999995
142959.25999832 485733.18999863 13.39000034
142959.54000092 485733.49000168 7.05000019
142959.79000092 485733.77000046 1.24000001
142959.31000137 485733.31000137 7.07000017
142958.83000183 485732.84999847 13.02000046
142959.25000000 485733.31000137 3.23000002
142959.06000137 485733.16999817 2.33999991
142958.50000000 485732.63000107 10.14000034
142958.54000092 485732.74000168 3.64000010
142957.91999817 485732.20000076 7.59999990
142958.06999969 485732.36999893 3.89000010
142958.13000107 485732.43000031 2.32999992
142963.15999985 485735.93999863 17.57999992
142963.31000137 485736.09000015 14.88000011
142963.00999832 485735.83000183 16.29000092
142962.86999893 485735.74000168 14.68000031
142962.68999863 485735.61999893 13.69999981
142963.33000183 485736.29000092 1.23000002
142962.29999924 485735.27000046 16.98999977
142962.54000092 485735.50999832 12.32999992
142962.34999847 485735.38000107 11.47999954
142962.40999985 485735.43000031 10.43000031
142961.97000122 485735.02999878 14.64999962
142962.08000183 485735.15000153 12.42000008
142962.25000000 485735.33000183 9.02999973
142961.88000107 485735.00000000 11.97999954
142962.08000183 485735.20999908 7.84000015
142962.00000000 485735.18000031 4.86000013
142961.31000137 485734.52000046 14.39999962
142961.77999878 485735.00999832 4.78000021
142961.09000015 485734.34000015 14.40999985
142961.50999832 485734.77999878 5.59000015
142961.63999939 485734.91999817 2.82999992
142960.88999939 485734.18999863 13.81000042
142961.47999954 485734.81999969 1.26999998
142960.63000107 485733.97000122 14.56999969
142960.66999817 485734.02000046 13.61999989
142961.25000000 485734.63999939 1.26999998
142960.56000137 485733.95999908 11.31999969
142960.86999893 485734.29000092 4.55999994
142961.02000046 485734.45000076 1.37000000
142960.34000015 485733.77999878 11.15999985
142960.79000092 485734.27000046 1.22000003
142960.06000137 485733.56000137 12.18999958
142960.56000137 485734.09000015 1.14999998
142959.77000046 485733.29999924 13.77999973
142959.81000137 485733.34999847 12.73999977
142960.08000183 485733.63999939 6.73000002
142959.86999893 485733.47999954 6.38999987
142959.63999939 485733.29999924 6.36999989
142959.74000168 485733.40000153 4.17000008
142959.83000183 485733.50000000 2.07999992
142959.40999985 485733.11000061 6.44999981
142959.54999924 485733.27000046 3.08999991
142959.04999924 485732.86000061 4.09999990
142958.22999954 485732.15999985 7.44000006
142958.11000061 485732.11000061 4.53999996
142957.65999985 485731.73999977 4.38000011
142963.63999939 485735.95999908 14.55000019
142963.29000092 485735.65000153 16.86000061
142963.36000061 485735.72999954 15.43999958
142963.09999847 485735.56999969 11.82999992
142962.38999939 485734.93999863 16.85000038
142962.70999908 485735.27999878 10.57999992
142962.15999985 485734.75999832 16.95999908
142962.59999847 485735.22000122 8.22000027
142962.54000092 485735.20999908 4.98999977
142961.95000076 485734.65000153 12.23999977
142962.58000183 485735.31000137 -0.44000000
142961.63999939 485734.38999939 13.96000004
142961.70999908 485734.45000076 12.67000008
142961.88999939 485734.63999939 8.93999958
142962.08000183 485734.84000015 5.07000017
142961.40999985 485734.20000076 14.13000011
142961.66999817 485734.47999954 8.69999981
142962.02999878 485734.84999847 1.30999994
142961.25000000 485734.09000015 12.88000011
142961.36999893 485734.22000122 10.27999973
142961.61000061 485734.47000122 5.26000023
142961.11000061 485734.00999832 10.89999962
142961.36000061 485734.27000046 5.69999981
142961.45999908 485734.38000107 3.47000003
142961.09999847 485734.04999924 6.30999994
142961.22000122 485734.18000031 3.72000003
142961.34999847 485734.31999969 0.97000003
142960.86999893 485733.88000107 6.28000021
142960.29000092 485733.31999969 13.93999958
142960.38000107 485733.40999985 12.01000023
142960.63000107 485733.68000031 6.46999979
142960.84000015 485733.90999985 1.88000000
142960.06999969 485733.13999939 14.01000023
142960.24000168 485733.33000183 10.03999996
142960.31999969 485733.40999985 8.31999969
142960.59999847 485733.72000122 2.07999992
142959.93000031 485733.04999924 12.15999985
142960.15000153 485733.29000092 7.17000008
142959.61000061 485732.77999878 14.07999992
142959.68999863 485732.86000061 12.31000042
142959.47000122 485732.68999863 12.28999996
142959.88000107 485733.13000107 2.82999992
142959.15999985 485732.41999817 14.18000031
142959.09999847 485732.41999817 10.27000046
142959.29000092 485732.63000107 5.78999996
142959.41999817 485732.77000046 2.70000005
142958.93000031 485732.29999924 9.02999973
142958.40999985 485731.87000084 10.52000046
142963.72000122 485735.79000092 16.70000076
142963.54000092 485735.65999985 15.82999992
142963.70999908 485735.84000015 12.65999985
142963.50000000 485735.66999817 12.43999958
142963.06000137 485735.27000046 16.59000015
142963.29999924 485735.52000046 11.88000011
142963.70000076 485736.00000000 -0.31000000
142962.77999878 485735.09000015 13.32999992
142963.29000092 485735.63000107 3.19000006
142963.47999954 485735.81999969 -0.38000000
142962.79000092 485735.15999985 8.60000038
142963.06999969 485735.45999908 3.05999994
142962.72999954 485735.15999985 5.19000006
142962.00999832 485734.45000076 15.30000019
142962.75999832 485735.25000000 0.08000000
142962.27000046 485734.79000092 5.38000011
142961.61999893 485734.16999817 13.98999977
142961.59000015 485734.20000076 9.93999958
142961.11000061 485733.74000168 15.34000015
142961.34000015 485733.99000168 10.40999985
142961.09000015 485733.77999878 10.97000027
142961.31999969 485734.02999878 6.05000019
142960.84000015 485733.58000183 11.36999989
142961.08000183 485733.84000015 6.26000023
142960.59999847 485733.38999939 11.76000023
142960.97000122 485733.77999878 3.66000009
142960.74000168 485733.59999847 3.68000007
142960.00999832 485732.88000107 14.81999969
142960.11999893 485733.00000000 12.31000042
142960.65999985 485733.58000183 0.30000001
142959.88000107 485732.79999924 12.69999981
142960.33000183 485733.29000092 2.48000002
142959.58000183 485732.54999924 14.39000034
142959.63999939 485732.61000061 13.03999996
142959.70999908 485732.68000031 11.55000019
142960.09000015 485733.09999847 2.73000002
142959.40000153 485732.40999985 13.40999985
142959.63000107 485732.65999985 8.14999962
142959.79999924 485732.86000061 4.01000023
142959.84999847 485732.90999985 2.90000010
142959.15000153 485732.20999908 13.96000004
142959.43999863 485732.52999878 7.07999992
142959.59999847 485732.70000076 3.49000001
142959.09999847 485732.22999954 9.77999973
142958.77000046 485731.93000031 12.40999985
142958.81000137 485731.96999931 11.43000031
142958.52999878 485731.72999954 12.80000019
142958.77000046 485732.00000000 6.86000013
142958.66999817 485731.95999908 3.64000010
142958.29999924 485731.62999916 7.15999985
142958.09000015 485731.46999931 6.57999992
142963.83000183 485735.47999954 12.18000031
142963.36000061 485735.04999924 16.88999939
142963.20000076 485734.93000031 15.73999977
142963.83000183 485735.59000015 3.50000000
142963.04000092 485734.83000183 14.48999977
142963.40000153 485735.20000076 7.53999996
142963.47000122 485735.27999878 6.01000023
142962.84000015 485734.66999817 14.06999969
142963.09000015 485734.93000031 9.11999989
142963.27000046 485735.13000107 5.50000000
142963.56999969 485735.43999863 -0.37000000
142963.31999969 485735.24000168 -0.08000000
142962.56000137 485734.56000137 5.92999983
142962.68000031 485734.68000031 3.52999997
142961.95999908 485733.97999954 13.64000034
142962.34000015 485734.38000107 5.78000021
142962.54999924 485734.61000061 1.37000000
142961.65000153 485733.70999908 15.44999981
142961.72000122 485733.79000092 13.89000034
142961.75000000 485733.81999969 13.31999969
142962.31000137 485734.40999985 1.65999997
142961.41999817 485733.59000015 10.69999981
142960.91999817 485733.11999893 16.70999908
142961.25999832 485733.47999954 9.39999962
142961.59000015 485733.83000183 2.27999997
142960.72000122 485732.97000122 16.12000084
142960.86000061 485733.11000061 13.17000008
142961.25999832 485733.54999924 4.38999987
142960.68999863 485733.00000000 11.96000004
142960.79000092 485733.11000061 9.60999966
142960.88000107 485733.20999908 7.65000010
142960.33000183 485732.66999817 14.94999981
142960.40999985 485732.75999832 13.07999992
142960.66999817 485733.04999924 7.23999977
142960.33000183 485732.74000168 9.89999962
142960.68000031 485733.11999893 2.03999996
142960.09000015 485732.54999924 10.14000034
142960.20000076 485732.65999985 7.71999979
142960.33000183 485732.81000137 4.59000015
142959.90999985 485732.41999817 9.02999973
142960.15000153 485732.68000031 3.55999994
142960.29000092 485732.83000183 0.38000000
142959.68000031 485732.24000168 9.10000038
142959.79000092 485732.34999847 6.65999985
142959.36000061 485731.95999908 11.25000000
142959.43999863 485732.04000092 9.42000008
142959.08000183 485731.70999908 12.71000004
142959.22000122 485731.87000084 9.28999996
142959.34000015 485732.00000000 6.34000015
142958.99000168 485731.68000031 9.47000027
142959.11000061 485731.81999969 6.36999989
142958.59999847 485731.32999992 13.30000019
142958.75999832 485731.50000000 9.52000046
142958.45000076 485731.22999954 11.43999958
142958.09000015 485730.97999954 9.10999966
142958.41999817 485731.34000015 0.69000000
142957.86000061 485730.78000069 9.25000000
142964.05000305 485735.34999847 6.61000013
142963.25000000 485734.58000183 17.52000046
142963.61999893 485734.95999908 10.43000031
142963.08000183 485734.45000076 16.60000038
142963.15000153 485734.52999878 15.25000000
142963.95000076 485735.36000061 -0.43000001
142962.91999817 485734.34000015 15.35999966
142963.24000168 485734.68000031 9.01000023
142962.63999939 485734.11000061 16.32999992
142963.29000092 485734.79000092 3.49000001
142962.68000031 485734.27000046 6.51000023
142962.47999954 485734.11999893 5.82999992
142962.66999817 485734.31999969 2.00999999
142961.84000015 485733.50000000 14.39000034
142962.47000122 485734.16999817 1.34000003
142961.65999985 485733.36000061 13.65999985
142961.22000122 485733.02000046 13.43000031
142961.40000153 485733.22000122 9.39999962
142961.72000122 485733.56000137 2.53999996
142960.86999893 485732.70999908 15.98999977
142961.02999878 485732.88999939 12.52000046
142961.31000137 485733.18999863 6.38000011
142960.93000031 485732.84000015 9.77000046
142961.02000046 485732.93999863 7.76999998
142961.15999985 485733.09000015 4.80999994
142960.59000015 485732.52999878 12.43000031
142960.77000046 485732.74000168 8.22000027
142960.91999817 485732.88999939 4.98999977
142960.36000061 485732.36000061 12.36999989
142960.34999847 485732.40999985 7.61999989
142960.11000061 485732.22000122 7.73000002
142960.31999969 485732.43999863 2.99000001
142960.45000076 485732.58000183 0.06000000
142959.90000153 485732.06000137 7.30000019
142960.20000076 485732.38999939 0.36000001
142959.47999954 485731.65999985 12.02000046
142959.65999985 485731.87000084 7.59999990
142959.72000122 485731.93000031 6.30999994
142959.47999954 485731.73999977 6.50000000
142959.61000061 485731.87000084 3.52999997
142958.97999954 485731.26000023 13.00000000
142958.77999878 485731.10000038 12.59000015
142959.00000000 485731.35000038 7.05000019
142958.70999908 485731.10000038 8.56999969
142958.38999939 485730.81999969 10.96000004
142958.52999878 485730.96999931 7.55000019
142958.13999939 485730.61000061 11.56000042
142958.27999878 485730.84000015 2.00999999
142958.04999924 485730.64999962 2.14000010
142964.09999847 485734.88999939 11.56000042
142963.45000076 485734.33000183 15.34000015
142963.81000137 485734.75000000 4.05999994
142964.06999969 485735.02999878 -1.12000000
142962.97999954 485733.95000076 15.81000042
142962.81999969 485733.83000183 14.69999981
142963.34000015 485734.38000107 4.21000004
142962.95000076 485734.02999878 7.40000010
142962.72999954 485733.86000061 7.19999981
142962.97999954 485734.11999893 2.16000009
142962.79999924 485733.99000168 1.11000001
142962.61000061 485733.84999847 0.20000000
142961.66999817 485732.90999985 15.30000019
142962.11000061 485733.45000076 0.99000001
142961.27999878 485732.61999893 14.05000019
142961.47000122 485732.83000183 9.89000034
142961.81000137 485733.18999863 2.48000002
142961.04000092 485732.43000031 14.34000015
142961.11999893 485732.52000046 12.47000027
142961.20000076 485732.59999847 10.92000008
142961.40000153 485732.81000137 6.44999981
142960.90000153 485732.34000015 12.47000027
142961.09999847 485732.56000137 7.94000006
142960.77999878 485732.27000046 10.14000034
142961.00000000 485732.50999832 5.26000023
142961.16999817 485732.70000076 1.25000000
142961.27000046 485732.79999924 -0.79000002
142960.38999939 485731.92000008 13.82999992
142960.75000000 485732.31000137 5.61000013
142960.11999893 485731.69000053 14.80000019
142960.22999954 485731.81999969 12.18000031
142960.36999893 485731.96999931 9.05000019
142960.50000000 485732.11000061 6.01000023
142960.13000107 485731.77000046 9.40999985
142959.88999939 485731.57999992 9.65999985
142960.02999878 485731.79999924 1.00000000
