142955.61600113 485730.79899979 11.95699978
142955.81200027 485731.41200066 13.97299957
142956.00099945 485731.99300003 15.82400036
142956.11100006 485732.22600174 15.84200001
142956.19200134 485732.29499817 14.85900021
142956.24499893 485732.22100067 13.05399990
142956.13899994 485731.73500061 10.42899990
142956.34199905 485732.37699890 12.61699963
142956.54600143 485732.68399811 11.41699982
142956.77899933 485733.47600174 14.46800041
142956.65100098 485732.88999939 11.28499985
142956.75199890 485733.06600189 10.95300007
142956.99300003 485733.90200043 14.24800014
142957.16400146 485733.79100037 9.64799976
142957.32699966 485734.24100113 10.72099972
142957.51499939 485734.78300095 12.21399975
142957.45100021 485734.49100113 10.62300014
142957.92599869 485736.14899826 17.21999931
142958.03699875 485736.35599899 16.97900009
142958.13700104 485736.50400162 16.37100029
142958.44599915 485737.37400055 18.59399986
142958.36999893 485737.01499939 16.61899948
142958.52199936 485737.44499969 17.72900009
142958.60800171 485737.51300049 16.63500023
142958.18600082 485735.51100159 5.60099983
142958.72100067 485737.71799850 16.33699989
142958.80699921 485737.84400177 15.81299973
142958.65599823 485737.12699890 11.85400009
142958.88000107 485737.88000107 14.65999985
142958.53499985 485736.23500061 5.56400013
142959.01599884 485738.17699814 14.78400040
142958.67300034 485736.53900146 5.71700001
142959.13199997 485738.38600159 14.46700001
142958.68199921 485736.23199844 2.52200007
142959.04199982 485737.68999863 9.46100044
142958.77799988 485736.42100143 2.41700006
142959.16699982 485737.95800018 9.54399967
142959.30199814 485738.24800110 9.62199974
142959.17800140 485737.34099960 3.24799991
142959.79899979 485740.03900146 17.04500008
142959.28499985 485737.56399918 3.24699998
142959.87900162 485740.09799957 15.97599983
142959.83100128 485739.86399841 14.67199993
142960.13299942 485740.66299820 16.32500076
142959.94900131 485739.77000046 11.32900047
142960.25299835 485740.94200134 16.60899925
142960.06999969 485740.05699921 11.64900017
142960.36700058 485741.18199921 16.62899971
142960.18700027 485740.30899811 11.73299980
142960.51200104 485741.20899963 13.91600037
142960.36000061 485740.46500015 9.73600006
142960.59500122 485740.95800018 9.75000000
142960.48099899 485740.39899826 6.59999990
142960.61299896 485740.67300034 6.58699989
142960.89199829 485741.36199951 7.66400003
142961.33399963 485742.53200150 10.08600044
142961.40999985 485742.60900116 9.31000042
142961.56100082 485743.04600143 10.48999977
142961.77600098 485743.76699829 13.15900040
142961.66500092 485743.20899963 9.98200035
142961.86899948 485743.87200165 12.28100014
142961.95000076 485743.97999954 11.67700005
142961.87699890 485743.60900116 9.56099987
142962.06399918 485744.22999954 11.79500008
142962.13499832 485744.22800064 10.34500027
142962.24399948 485744.44300079 10.21700001
142962.38000107 485744.78300095 10.76799965
142955.77799988 485730.57999992 11.95899963
142955.90399933 485730.82699966 11.80099964
142956.14899826 485731.64699936 14.85099983
142956.25899887 485731.88400078 14.93000031
142956.37400055 485732.11100006 14.79599953
142956.49900055 485732.10499954 12.16399956
142956.43000031 485731.78499985 10.43599987
142956.60200119 485732.31800079 12.15499973
142956.52799988 485731.97599983 10.30599976
142956.71699905 485732.53499985 11.92399979
142956.54299927 485731.72800064 7.56099987
142956.83599854 485732.75000000 11.59200001
142956.94400024 485732.94800186 11.33600044
142957.04100037 485733.12699890 11.10200024
142957.14300156 485733.31100082 10.80799961
142957.55099869 485734.58499908 14.99899960
142957.74599838 485735.23400116 17.36599922
142957.85900116 485735.44499969 17.14599991
142957.58000183 485734.14300156 10.04199982
142957.69900131 485734.37699890 9.89599991
142958.22600174 485736.22900009 17.30999947
142958.69800186 485737.21400070 17.32099915
142958.55300140 485736.52899933 13.55200005
142958.88399887 485737.44599915 15.78600025
142958.98199844 485737.58800125 15.18299961
142959.06000137 485737.67699814 14.45199966
142959.17300034 485737.91299820 14.44900036
142958.83000183 485736.28099823 5.41800022
142958.96900177 485736.26300049 2.42000008
142959.33399963 485737.73600006 9.40100002
142959.06999969 485736.46500015 2.34400010
142959.46599960 485738.03200150 9.59899998
142959.33399963 485737.06200027 2.79200006
142959.97600174 485739.82500076 16.77000046
142960.07799911 485740.02399826 16.64800072
142959.99800110 485739.63700104 14.49300003
142960.14300156 485739.99900055 15.06599998
142960.31499863 485740.47999954 16.26300049
142960.10800171 485739.47800064 10.66300011
142960.24000168 485739.79199982 11.05099964
142960.02799988 485738.76499939 5.29799986
142960.50000000 485740.74000168 15.03499985
142960.63499832 485741.04299927 15.23700047
142960.43399811 485740.06200027 9.73200035
142960.75400162 485741.25600052 14.89299965
142960.56900024 485740.35200119 9.81099987
142960.67300034 485740.56100082 9.73999977
142960.66699982 485740.23500061 6.65500021
142960.77899933 485740.46599960 6.61600018
142960.91899872 485740.80599976 7.10699987
142961.05199814 485741.15900040 7.84299994
142961.30599976 485741.75000000 8.45699978
142961.42499924 485741.99399948 8.41100025
142962.02600098 485743.63899994 12.23799992
142962.15000153 485743.92599869 12.52799988
142962.16099930 485743.66899872 9.79500008
142962.27600098 485743.92499924 9.94600010
142955.55400085 485729.19099998 10.38899994
142956.02700043 485730.48500061 13.41300011
142956.13899994 485730.71899986 13.43900013
142956.21400070 485730.73500061 12.04599953
142956.33100128 485730.96100044 11.85799980
142956.41899872 485731.08099937 11.22599983
142956.52899933 485731.30200005 11.17899990
142956.64400101 485731.52700043 11.02400017
142956.76399994 485731.76600075 10.90999985
142956.85800171 485731.94700050 10.77099991
142956.96400070 485732.14799881 10.56799984
142956.83000183 485731.52499962 7.20800018
142957.18799973 485732.84799957 12.86699963
142957.07899857 485732.34500122 10.14400005
142957.19499969 485732.58100128 10.09300041
142957.32699966 485732.91699982 10.66499996
142957.44699860 485733.16099930 10.61900043
142957.55300140 485733.35499954 10.34099960
142957.66999817 485733.57600021 10.12600040
142958.05699921 485735.09299850 17.09499931
142958.17399979 485735.32300186 16.97999954
142957.87400055 485733.92100143 9.33100033
142958.28499985 485735.53099823 16.73800087
142957.99599838 485734.17699814 9.34399986
142958.50500107 485735.94400024 16.28599930
142958.72000122 485736.35200119 15.88899994
142958.79000092 485736.36299896 14.56700039
142958.88299942 485736.51200104 14.12699986
142958.97299957 485736.63999939 13.52999973
142959.22000122 485737.45999908 16.53499985
142959.33700180 485737.71799850 16.65299988
142959.25999832 485737.34799957 14.61100006
142959.35699844 485737.50600052 14.17599964
142959.24800110 485736.98600006 11.30900002
142959.00000000 485735.80599976 4.79199982
142959.10599899 485736.00699997 4.58099985
142959.25199890 485736.34400177 4.91200018
142959.37500000 485736.60300064 4.94099998
142959.97600174 485739.15999985 17.72299957
142959.66699982 485737.67599869 9.49100018
142959.48600006 485736.80400085 4.65199995
142959.39599991 485736.36999893 2.24200010
142960.07899857 485739.34500122 17.43899918
142959.51200104 485736.61500168 2.27699995
142959.65200043 485736.92800140 2.47600007
142960.45500183 485740.19200134 18.04700089
142960.31000137 485739.49000168 14.13899994
142960.16799927 485738.80500031 10.31999969
142960.28099823 485739.03200150 10.21899986
142960.64699936 485740.16600037 13.86600018
142960.49700165 485739.43799973 9.79300022
142960.33300018 485738.64099884 5.33500004
142960.75899887 485740.41400146 14.01500034
142960.87599945 485740.64799881 13.91800022
142960.79100037 485740.23500061 11.60200024
142961.02000046 485741.01499939 14.56400013
142960.84299850 485739.83200073 6.58799982
142960.93999863 485740.01499939 6.40999985
142961.05400085 485740.26399994 6.51000023
142961.20100021 485740.61100006 6.90999985
142961.63000107 485741.76100159 9.43000031
142961.77299881 485742.12799835 10.07600021
142961.89500046 485742.36100006 9.87899971
142961.83399963 485742.05899811 8.17000008
142962.05300140 485742.85300064 11.45699978
142961.93099976 485742.24300003 7.99200010
142962.17800140 485743.12200165 11.55399990
142962.24100113 485743.08300018 9.89900017
142962.34500122 485743.28200150 9.72599983
142962.48300171 485743.29199982 6.98699999
142962.69900131 485743.62699890 5.83300018
142962.80099869 485743.84700012 5.90700006
142962.79000092 485743.79100037 5.59000015
142955.71099854 485728.90699959 10.38300037
142955.82500076 485729.13500023 10.28699970
142956.04600143 485729.85499954 12.81700039
142956.15800095 485730.07299995 12.67500019
142956.05899811 485729.61899948 10.24600029
142956.28900146 485730.38999939 13.09899998
142956.16999817 485729.57200050 7.52299976
142956.28900146 485729.81900024 7.53800011
142956.59700012 485730.92099953 12.00500011
142956.46699905 485730.31800079 8.76200008
142956.81200027 485731.33799934 11.69299984
142956.92599869 485731.53300095 11.29699993
142956.74900055 485730.71599960 6.89499998
142957.02899933 485731.71899986 11.01700020
142956.85900116 485730.93400002 6.78599977
142957.13999939 485731.93300056 10.84700012
142957.32600021 485732.50299835 12.64299965
142957.24900055 485732.14899826 10.72900009
142957.08399963 485731.37999916 6.57999992
142957.48300171 485732.89400101 13.26700020
142957.36899948 485732.37099838 10.43599987
142957.47999954 485732.59299850 10.35499954
142957.59299850 485732.80699921 10.14900017
142957.70299911 485733.01399994 9.94099998
142957.81600189 485733.25099945 9.93400002
142957.93500137 485733.49100113 9.86100006
142958.37400055 485735.24599838 18.08300018
142958.04100037 485733.68299866 9.56900024
142958.47800064 485735.42800140 17.74699974
142958.15299988 485733.90100098 9.42000008
142958.53699875 485735.39799881 16.25200081
142958.25799942 485734.08900070 9.10900021
142958.65900040 485735.63399887 16.08399963
142958.87099838 485736.37099838 18.94599915
142958.75799942 485735.83300018 16.00300026
142958.86999893 485736.03400040 15.68500042
142958.97200012 485736.21500015 15.37800026
142959.24000168 485737.14699936 19.03100014
142959.10400009 485736.50099945 15.48299980
142959.34299850 485737.33599854 18.77300072
142959.17399979 485736.53499985 14.36800003
142959.12599945 485736.30500031 13.11200047
142959.28099823 485736.72999954 14.09700012
142959.23799896 485736.52700043 12.98700047
142959.53200150 485737.25000000 14.06000042
142959.54199982 485736.98099899 11.22799969
142960.00999832 485738.60599899 17.59499931
142959.53599930 485736.34099960 5.05700016
142960.14799881 485738.95600128 18.18300056
142959.92300034 485737.59500122 9.45499992
142959.65100098 485736.28699875 2.19499993
142959.75899887 485736.50799942 2.13800001
142960.31000137 485738.49000168 10.30000019
142960.70600128 485740.11000061 18.08699989
142960.54000092 485739.30500031 13.60799980
142960.81499863 485740.34299850 18.15999985
142960.63299942 485739.46500015 13.26200008
142960.75400162 485739.72900009 13.37199974
142960.98799896 485740.50799942 16.23600006
142960.89300156 485740.04800034 13.66300011
142960.58000183 485738.52700043 5.15799999
142961.00699997 485740.28799820 13.68299961
142961.16299820 485740.41899872 11.76299953
142961.08900070 485739.71300125 6.38299990
142961.20100021 485739.94400024 6.34200001
142961.88700104 485741.66699982 9.22700024
142962.16099930 485742.29399872 9.74600029
142962.30099869 485742.65800095 10.47099972
142962.25500107 485742.43000031 9.17300034
142962.21200180 485742.21599960 7.95499992
142962.13100052 485741.81800079 5.70100021
142962.37500000 485742.70500183 9.43200016
142962.31399918 485742.40700150 7.73600006
142962.68799973 485743.25600052 8.43200016
142962.80400085 485743.52600098 8.70100021
142962.83700180 485743.32199860 6.00500011
142962.97000122 485743.61299896 6.13299990
142963.09600067 485743.90000153 6.37500000
142963.20899963 485744.15200043 6.54699993
142955.95399857 485729.03599930 10.35299969
142956.16999817 485729.73900032 12.83699989
142956.29600143 485729.98500061 12.67899990
142956.18700027 485729.48900032 10.02499962
142956.43299866 485730.30400085 12.99100018
142956.53200150 485730.50699997 12.96800041
142956.31800079 485729.52300072 7.69899988
142956.61800003 485730.26499939 8.82999992
142956.55899811 485729.98999977 7.35900021
142956.86399841 485731.09399986 11.92599964
142956.67300034 485730.20999908 7.17999983
142957.18299866 485731.65500069 10.89900017
142957.01900101 485730.89299965 6.79400015
142957.37799835 485732.26599884 12.91699982
142957.47900009 485732.47700119 12.94200039
142957.22600174 485731.30699921 6.62099981
142957.61700058 485732.80799866 13.36699963
142957.34299850 485731.54000092 6.50600004
142957.64300156 485732.58700180 10.63599968
142957.73799896 485732.74499893 10.23999977
142957.84400177 485732.94499969 10.04199982
142957.94699860 485733.13000107 9.75800037
142958.40000153 485734.91400146 17.99799919
142958.06999969 485733.37400055 9.62199974
142958.51399994 485735.16699982 18.13100052
142958.17200089 485733.56600189 9.41600037
142958.66699982 485735.59000015 19.15200043
142958.28099823 485733.77700043 9.26799965
142958.75000000 485735.64400101 17.99300003
142958.39799881 485733.99399948 8.98499966
142958.81299973 485735.60200119 16.30800056
142958.52199936 485734.23799896 8.85599995
142959.02500153 485735.98899841 15.75199986
142959.13600159 485736.18600082 15.40999985
142959.40200043 485737.12300110 19.17000008
142959.49300003 485737.27399826 18.79299927
142959.35599899 485736.62400055 15.21399975
142959.45000076 485736.78799820 14.89999962
142959.53900146 485736.91199875 14.28199959
142959.48699951 485736.66299820 12.91600037
142959.44200134 485736.44900131 11.73499966
142959.60699844 485736.90999985 12.88599968
142959.47700119 485736.29600143 9.49800014
142959.88299942 485737.90399933 16.97800064
142959.75000000 485737.26900101 13.47299957
142959.65800095 485736.82799911 11.03999996
142959.99900055 485738.17200089 17.23500061
142959.65599823 485736.22900009 5.18499994
142960.28300095 485738.91099930 18.67300034
142959.77199936 485736.46699905 5.13999987
142960.38499832 485739.09299850 18.37899971
142959.77199936 485736.15700150 2.09599996
142959.88499832 485736.38700104 2.04500008
142960.74000168 485739.83599854 18.40500069
142960.43000031 485738.34500122 10.11499977
142960.84999847 485740.06900024 18.43000031
142960.65200043 485739.11600113 13.12800026
142960.53799820 485738.56600189 10.06499958
142960.96400070 485740.29999924 18.36700058
142960.76800156 485739.35300064 13.08500004
142961.05899811 485740.44800186 17.87599945
142960.89799881 485739.66999817 13.53699970
142961.11500168 485740.40000153 16.25099945
142961.01300049 485739.90399933 13.47900009
142960.69800186 485738.37900162 4.95200014
142961.13399887 485740.15800095 13.48999977
142961.33900070 485739.84799957 6.25899982
142962.03200150 485741.59500122 9.23299980
142961.94699860 485741.17900085 6.88199997
142962.39699936 485742.38499832 9.50599957
142962.32400131 485742.02500153 7.46500015
142962.50600052 485742.59799957 9.37100029
142962.62200165 485742.82500076 9.22399998
142962.77399826 485742.90599823 6.89400005
142962.95100021 485743.45600128 8.68000031
142962.96900177 485743.22600174 6.05399990
142963.09600067 485743.49800110 6.11700010
142963.23300171 485743.83300018 6.58400011
142963.34700012 485744.10200119 6.89900017
142963.62200165 485744.72700119 7.40700006
142963.73099899 485744.95399857 7.38999987
142956.03099823 485728.66600037 10.94200039
142956.25299835 485729.12500000 10.88899994
142956.33700180 485729.19899940 9.89500046
142956.66299820 485730.35700035 14.60400009
142956.70899963 485730.29500008 13.04699993
142956.83800125 485729.99099922 7.42799997
142956.93299866 485730.13999939 6.94899988
142957.03900146 485730.35199928 6.84700012
142957.15299988 485730.57799911 6.73500013
142957.28200150 485730.83900070 6.65299988
142957.38499832 485731.04500008 6.55999994
142957.50000000 485731.28599930 6.57200003
142957.61899948 485731.51700020 6.40600014
142957.92200089 485732.59500122 10.78499985
142958.16699982 485733.41099930 13.79599953
142958.35400009 485733.36100006 9.44900036
142958.84199905 485735.35699844 19.06399918
142958.94100189 485735.55599976 18.98999977
142959.19300079 485736.13100052 19.47100067
142958.76699829 485734.12799835 8.52499962
142959.21200180 485735.90100098 16.83699989
142958.88299942 485734.35599899 8.38500023
142959.30400085 485736.05300140 16.45999908
142959.50199890 485736.69400024 18.68099976
142959.40599823 485736.24200058 16.19899940
142959.51399994 485736.43899918 15.94200039
142959.59799957 485736.53699875 15.17899990
142959.68799973 485736.66699982 14.59200001
142959.79199982 485736.83800125 14.14799976
142959.89400101 485736.99100113 13.55700016
142960.20800018 485738.18899918 18.90900040
142959.98699951 485737.13999939 13.12399960
142959.90200043 485736.73600006 10.89099979
142960.31600189 485738.43500137 19.08799934
142960.00000000 485736.92599869 10.75599957
142960.44300079 485738.70299911 19.14399910
142960.36500168 485738.33200073 17.09000015
142959.90999985 485736.15999985 5.07900000
142959.86800003 485735.95500183 3.94600010
142960.03400040 485736.09600067 1.90999997
142960.66500092 485738.84600067 15.96899986
142960.13600159 485736.30300140 1.86099994
142960.59400177 485738.20600128 11.15100002
142960.77700043 485738.73799896 12.61999989
142960.68000031 485738.26699829 10.00100040
142960.90700150 485739.02000046 12.74300003
142961.27299881 485740.11600113 16.00600052
142960.85599899 485738.10100174 4.75199986
142961.48600006 485739.56499863 6.24200010
142961.88000107 485741.14400101 13.65200043
142961.60300064 485739.78900146 6.03299999
142962.05300140 485740.97200012 8.46199989
142962.16199875 485741.20000076 8.45100021
142962.27099991 485741.41199875 8.30700016
142962.41999817 485741.82500076 9.30099964
142962.60499954 485742.39300156 11.08800030
142962.47900009 485741.76800156 7.55000019
142962.66999817 485742.36800003 9.52000046
142963.04399872 485742.87400055 6.82200003
142963.54800034 485743.99100113 7.46799994
142963.65999985 485744.23099899 7.52799988
142963.78400040 485744.48899841 7.51399994
142963.90499878 485744.74000168 7.50099993
142956.12900162 485728.09399986 10.02799988
142956.47700119 485729.38999939 15.65799999
142956.24300003 485728.33099937 10.02400017
142956.60100174 485729.63999939 15.56499958
142956.36800003 485728.57900047 9.91199970
142956.71400070 485729.87100029 15.53299999
142956.47499847 485728.78700066 9.75399971
142956.58700180 485729.01300049 9.68999958
142956.84000015 485729.86300087 12.83300018
142956.96900177 485730.14999962 13.01799965
142957.05500031 485730.26099968 12.33899975
142957.26900101 485730.32600021 8.61499977
142957.62300110 485731.65900040 14.46199989
142957.38700104 485730.57399940 8.62199974
142957.72900009 485731.86100006 14.27099991
142957.85699844 485732.11800003 14.17500019
142957.66999817 485730.93600082 6.39400005
142957.77700043 485731.15800095 6.38800001
142957.87900162 485731.35700035 6.25600004
142958.39099884 485733.13000107 13.19400024
142958.28499985 485732.64300156 10.55399990
142958.50299835 485733.38199997 13.35700035
142959.17200089 485735.33000183 18.76199913
142959.25299835 485735.43399811 18.12400055
142959.33599854 485735.48500061 16.94899940
142959.55799866 485736.20999908 19.49399948
142959.12099838 485734.15200043 8.24699974
142959.64199829 485736.30799866 18.74099922
142959.22499847 485734.34299850 7.98999977
142959.68199921 485736.22700119 17.12800026
142959.80599976 485736.50299835 17.30500031
142959.95000076 485736.55400085 14.86400032
142959.76699829 485735.68600082 10.09899998
142960.13999939 485736.84600067 13.82499981
142959.98300171 485736.09899902 9.71300030
142960.21200180 485736.87099838 12.62100029
142960.32699966 485737.09000015 12.39200020
142960.25699997 485736.75600052 10.54699993
142960.64500046 485738.30199814 17.77799988
142960.16199875 485735.99399948 5.02199984
142960.11500168 485735.76399994 3.74699998
142960.74499893 485738.44499969 17.13699913
142960.85100174 485738.59799957 16.46599960
142960.29600143 485735.93799973 1.72500002
142961.04700089 485739.25899887 18.94899940
142960.92100143 485738.65900040 15.61699963
142960.81499863 485737.82899857 9.65900040
142961.02700043 485738.54000092 12.29399967
142961.36700058 485739.84700012 18.16099930
142961.46500015 485740.03200150 17.96299934
142961.40399933 485739.73899841 16.32900047
142961.47200012 485739.75600052 15.11200047
142961.65200043 485740.26599884 16.42200089
142961.80400085 485740.64699936 17.06299973
142962.00799942 485741.06200027 16.96400070
142961.73699951 485739.38399887 6.05200005
142961.85200119 485739.61700058 5.98299980
142962.08900070 485740.14599991 6.32399988
142962.29899979 485740.83800125 8.84200001
142962.21500015 485740.43299866 6.55900002
142962.34899902 485740.72499847 6.69099998
142962.45899963 485740.93500137 6.49100018
142962.57199860 485741.18500137 6.64799976
142963.05500031 485742.84099960 12.98999977
142962.93299866 485742.23500061 9.55300045
142963.17599869 485743.11600113 13.21100044
142963.02899933 485742.06900024 5.95599985
142963.15499878 485742.32699966 5.89799976
142963.53900146 485743.25899887 7.19299984
142963.66999817 485743.52899933 7.15700006
142963.77999878 485743.70700073 6.63999987
142964.05200195 485744.42200089 8.10599995
142956.00699997 485727.38400078 10.49600029
142956.11899948 485727.59600067 10.27799988
142956.25000000 485727.89500046 10.51500034
142956.35400009 485728.10499954 10.44999981
142956.65299988 485729.15900040 14.70699978
142956.79899979 485729.51899910 15.23700047
142956.70500183 485729.09199905 12.96199989
142956.94200134 485729.87199974 15.77200031
142956.67499924 485728.65800095 9.30099964
142957.02199936 485729.95199966 14.93799973
142956.92699814 485729.52700043 12.67000008
142956.91699982 485729.17700005 9.44900036
142957.20800018 485730.19099998 13.43500042
142957.18099976 485730.06800079 12.77400017
142957.28900146 485730.25000000 12.35700035
142957.62400055 485731.22200012 15.06099987
142958.13700104 485732.11700058 13.33500004
142957.97100067 485731.06599998 6.42600012
142958.38299942 485732.70700073 14.08199978
142958.07199860 485731.26499939 6.29099989
142958.48899841 485732.92499924 14.06299973
142958.18600082 485731.52000046 6.46199989
142958.57600021 485733.01699829 13.19299984
142958.69499969 485733.24900055 13.04100037
142959.33700180 485735.06200027 17.66799927
142959.61399841 485735.78200150 19.06200027
142959.41600037 485734.84999847 13.97399998
142959.75600052 485736.10699844 19.34099960
142959.42599869 485734.25500107 7.92100000
142959.93299866 485736.36299896 18.24300003
142959.65599823 485735.05400085 11.07900047
142959.52000046 485734.42100143 7.60799980
142960.01399994 485736.42699814 17.21599960
142959.63499832 485734.64099884 7.42700005
142960.69599915 485738.06499863 19.31699944
142960.42599869 485736.77799988 12.22200012
142960.38100052 485736.56200027 11.03499985
142960.80199814 485738.26800156 19.13599968
142960.53799820 485737.00999832 12.19499969
142960.47299957 485736.69699860 10.47099972
142960.84299850 485738.17900085 17.42600060
142960.78699875 485737.91400146 15.96000004
142960.30899811 485735.62699890 3.32800007
142961.14300156 485738.97299957 19.08399963
142960.48699951 485735.83000183 1.67999995
142961.25899887 485739.18700027 18.79400063
142961.34899902 485739.31200027 18.17799950
142961.10800171 485738.15499878 11.76200008
142961.26699829 485738.61899948 13.06299973
142961.19300079 485737.58499908 4.45400000
142961.75400162 485740.00799942 16.71599960
142961.64899826 485739.49800110 13.88000011
142961.89099884 485740.36800003 17.45100021
142961.86100006 485740.22399902 16.64599991
142962.02799988 485740.67200089 17.62100029
142962.12599945 485740.83399963 17.20400047
142962.22100067 485740.99499893 16.83399963
142961.94599915 485739.31600189 6.00899982
142962.07199860 485739.58200073 6.03499985
142962.19499969 485739.84299850 6.08099985
142962.57799911 485741.40000153 13.50599957
142962.31700134 485740.11999893 6.29899979
142962.43600082 485740.36000061 6.22700024
142962.55300140 485740.60300064 6.21000004
142962.70199966 485740.96599960 6.74499989
142962.92499924 485741.75699997 9.91499996
142962.81000137 485741.18700027 6.69399977
142962.75299835 485740.91299820 5.14300013
142963.19900131 485742.78499985 14.39099979
142963.03599930 485741.97999954 9.83699989
142963.13600159 485742.12699890 9.23900032
142963.00000000 485741.45800018 5.44700003
142963.13399887 485741.77299881 5.79500008
142963.26499939 485742.08300018 6.16300011
142963.38299942 485742.35100174 6.37400007
142963.52299881 485742.66600037 6.59999990
142963.64699936 485742.96300125 6.98199987
142963.85499954 485743.35300064 6.53800011
142964.04399872 485743.91099930 8.15200043
142963.98899841 485743.63399887 6.56500006
142964.17400360 485744.20700073 8.40299988
142964.30500031 485744.52099991 8.79800034
142964.22200012 485744.10400009 6.40700006
142964.35299683 485744.39400101 6.57700014
142964.48699951 485744.68399811 6.65700006
142956.18999863 485727.49699974 10.42399979
142956.17900085 485727.44499969 10.14700031
142956.31000137 485727.72699928 10.21599960
142956.75899887 485729.18799973 15.41100025
142956.88700104 485729.45599937 15.41399956
142957.00000000 485729.67900085 15.29899979
142956.73400116 485728.47299957 8.87100029
142957.00500107 485729.42799950 12.69099998
142957.09999847 485729.61499977 12.58600044
142956.96599960 485729.00600052 9.33800030
142957.09000015 485729.26899910 9.38500023
142957.43999863 485730.28499985 12.19299984
142957.35699844 485729.90399933 10.15499973
142957.53400040 485730.15999985 9.05700016
142958.18099976 485731.94599915 13.34000015
142958.29499817 485732.17599869 13.26399994
142958.43399811 485732.54000092 13.98999977
142958.63800049 485733.22100067 16.51000023
142958.52500153 485732.70199966 13.70400047
142958.22999954 485731.33200073 6.30399990
142958.63399887 485732.88399887 13.28299999
142958.84999847 485733.58300018 15.70400047
142958.74700165 485733.09700012 13.06700039
142959.39599991 485734.92900085 17.75200081
142959.68199921 485735.65200043 18.99600029
142959.81600189 485735.95800018 19.25600052
142959.52099991 485734.57400131 11.69400024
142960.02299881 485736.30599976 18.45000076
142959.60300064 485734.33800125 7.68499994
142959.69599915 485734.50500107 7.42000008
142959.80199814 485734.70700073 7.22200012
142960.47999954 485736.63600159 12.30300045
142960.86299896 485738.13499832 19.17900085
142960.75199890 485737.60499954 16.25499916
142960.59500122 485736.85800171 12.14000034
142960.85499954 485737.80300140 16.08499908
142960.69599915 485737.04899979 11.92399979
142961.04000092 485738.06900024 14.89999962
142960.85200119 485737.16999817 9.92899990
142960.53699875 485735.66500092 1.59800005
142961.30799866 485739.02500153 18.80200005
142960.94599915 485737.29600143 9.22500038
142961.40100098 485739.14400101 18.07200050
142961.27600098 485738.54999924 14.77299976
142961.18500137 485738.11399841 12.35799980
142961.49200058 485739.30400085 17.77799988
142961.30699921 485738.41899872 12.86900043
142961.58399963 485739.40900040 16.92200089
142961.44400024 485738.73799896 13.19299984
142961.24599838 485737.42499924 4.35200024
142961.78699875 485739.73199844 15.92000008
142961.96400070 485740.27299881 17.62199974
142961.96500015 485739.93799973 14.30900002
142962.10900116 485740.27600098 14.66399956
142962.30799866 485740.94800186 17.18499947
142962.00899887 485739.18999863 6.05600023
142962.13499832 485739.44499969 5.97599983
142962.54999924 485741.13199997 14.03499985
142962.25899887 485739.71500015 6.07000017
142962.64699936 485741.28699875 13.57600021
142962.38100052 485739.99100113 6.28299999
142962.49300003 485740.22800064 6.32600021
142962.60900116 485740.44800186 6.09000015
142962.87699890 485741.08000183 6.84399986
142963.09099960 485741.83499908 9.85700035
142963.37300110 485742.86600113 14.22399998
142963.18099976 485741.92200089 8.87800026
142963.49800110 485743.13999939 14.35299969
142963.61700058 485743.39500046 14.41899967
142963.31800079 485741.91799927 6.02899981
142963.44300079 485742.20999908 6.34100008
142963.64400101 485742.83399963 8.36499977
142963.58200073 485742.52999878 6.62900019
142963.74599838 485742.97499847 7.63800001
142963.72800064 485742.88299942 7.11399984
142963.86600113 485743.23099899 7.70400000
142963.98199844 485743.47800064 7.75299978
142964.10399628 485743.74700165 7.89300013
142964.23999786 485744.07400131 8.31499958
142964.35500336 485744.34099960 8.57400036
142964.38899994 485744.20100021 6.49900007
142964.50499725 485744.45100021 6.57200003
142964.63999939 485744.73699951 6.63000011
142956.20299911 485726.87400055 9.81900024
142956.45800018 485727.48699951 10.61800003
142956.83900070 485728.64500046 14.19799995
142956.80199814 485728.47999954 13.32400036
142956.99700165 485729.09199905 15.35299969
142957.13499832 485729.42900085 15.84599972
142957.25899887 485729.69300079 15.90499973
142957.12400055 485729.08600044 12.67500019
142957.29700089 485729.58900070 14.09000015
142957.08399963 485728.62199974 8.93500042
142957.18799973 485728.84199905 8.95800018
142957.52399826 485730.06299973 14.08500004
142957.31499863 485729.11199951 9.00599957
142957.57400131 485729.96500015 12.09000015
142957.67900085 485730.18300056 12.06700039
142957.52700043 485729.48200035 8.30900002
142957.89799881 485730.92300034 14.87800026
142957.77099991 485730.05800056 8.96700001
142957.90700150 485730.33900070 8.94999981
142958.75400162 485732.78200150 15.59000015
142958.64799881 485732.29399872 12.95300007
142958.38999939 485731.09700012 6.49700022
142958.88000107 485733.08900070 16.00799942
142958.48600006 485731.26199913 6.13899994
142958.98899841 485733.28400040 15.70199966
142958.88399887 485732.79199982 13.03800011
142958.60200119 485731.48699951 5.98099995
142959.00899887 485733.03499985 12.86499977
142959.11899948 485733.25400162 12.76299953
142959.23099899 485733.48500061 12.73200035
142959.72800064 485734.62500000 13.73299980
142959.84999847 485734.87799835 13.73600006
142959.98199844 485735.14500046 13.65100002
142960.24200058 485736.08100128 17.51899910
142959.94400024 485734.41699982 7.23500013
142960.06200027 485734.63399887 6.94999981
142960.95100021 485737.61999893 18.10600090
142961.01399994 485737.58300018 16.43199921
142960.84099960 485736.75699997 11.88399982
142961.22600174 485738.26900101 18.83300018
142960.95100021 485736.96099854 11.61600018
142961.29700089 485738.32400131 17.91799927
142961.03799820 485737.08800125 11.09099960
142960.67300034 485735.34700012 1.46300006
142961.15000153 485737.29999924 10.86299992
142960.79600143 485735.60599899 1.48599994
142961.31700134 485737.74300003 11.79199982
142961.47000122 485738.14899826 12.64599991
142961.16299820 485736.67599869 4.47100019
142961.76100159 485739.26800156 17.66399956
142961.38600159 485737.12599945 4.32200003
142961.94900131 485739.47700119 15.86499977
142962.14899826 485740.14899826 18.37700081
142962.23899841 485740.29299927 17.94899940
142962.23099899 485739.90399933 14.29699993
142962.04199982 485738.64899826 5.82600021
142962.15299988 485738.88199997 5.84100008
142962.47700119 485740.14899826 11.65200043
142962.27099991 485739.14599991 6.03000021
142962.59600067 485740.38499832 11.51900005
142962.40200043 485739.43799973 6.20599985
142962.80899811 485741.06100082 13.81200027
142962.53699875 485739.73500061 6.36399984
142962.91299820 485741.26399994 13.66899967
142962.64599991 485739.95899963 6.32800007
142962.74800110 485740.14899826 6.10300016
142963.02299881 485741.13399887 10.14000034
142963.15200043 485741.39599991 10.06299973
142963.00299835 485740.66299820 5.92700005
142962.91999817 485740.25799942 3.63899994
142963.34000015 485741.99200058 12.09200001
142963.04700089 485740.55799866 3.98699999
142963.52000046 485742.55799866 13.95499992
142963.21699905 485741.07300186 5.55700016
142963.67200089 485742.93299866 14.52600002
142963.77999878 485743.12099838 14.16600037
142963.88899994 485743.37099838 14.37300014
142964.14199829 485743.63800049 11.81099987
142964.00399780 485742.95199966 7.90700006
142964.13099670 485743.24200058 8.16199970
142964.25299835 485743.55400085 8.71899986
142964.41300201 485744.01100159 9.93299961
142964.37300110 485743.81399918 8.80599976
142956.82099915 485727.46500015 10.24899960
142957.09899902 485728.42099953 13.93099976
142957.35400009 485729.02300072 14.65200043
142957.10900116 485727.91300011 8.74800014
142957.61999893 485729.64800072 15.32999992
142957.72100067 485729.82600021 15.01399994
142957.81100082 485729.96500015 14.53299999
142957.84600067 485729.81100082 12.27600002
142957.69900131 485729.13800049 8.67899990
142957.94800186 485729.98500061 11.89500046
142957.80699921 485729.33900070 8.44099998
142958.17499924 485730.76600075 14.93000031
142958.04100037 485730.15500069 11.65699959
142958.27999878 485730.94599915 14.53899956
142958.18000031 485730.16300011 8.89900017
142958.64099884 485731.96800041 17.19899940
142958.52799988 485731.45000076 14.41100025
142958.43700027 485730.45400047 6.50000000
142958.55500031 485730.67300034 6.22800016
142958.94900131 485732.19800186 13.12600040
142959.16600037 485732.95100021 16.07900047
142959.03699875 485732.34999847 12.83199978
142959.26300049 485733.11199951 15.66800022
142958.87599945 485731.31200027 5.93800020
142959.27500153 485732.83200073 12.70699978
142959.00299835 485731.57399940 5.89599991
142959.39699936 485733.08000183 12.63899994
142960.00999832 485734.45700073 13.59399986
142960.12300110 485734.70299911 13.68799973
142960.25099945 485734.96699905 13.66899967
142960.36100006 485735.17800140 13.48099995
142960.34000015 485734.45700073 6.81199980
142960.44900131 485734.66600037 6.65100002
142960.56999969 485734.89699936 6.44199991
142960.79100037 485735.65599823 9.35000038
142960.91099930 485735.89699936 9.24199963
142961.53300095 485738.20399857 19.17600060
142961.48099899 485737.66500092 14.93500042
142961.31499863 485736.87300110 10.56599998
142961.42499924 485737.09000015 10.45699978
142961.34199905 485736.70000076 8.29800034
142961.11100006 485735.25999832 -1.08099997
142961.87300110 485738.57199860 15.81999969
142961.50199890 485736.79499817 5.97200012
142961.99599838 485738.85599899 16.08900070
142961.61700058 485737.03900146 6.00699997
142961.54700089 485736.70000076 4.12500000
142961.73400116 485737.30400085 6.24100018
142961.65700150 485736.93600082 4.19399977
142961.52899933 485736.32199860 0.78299999
142961.89300156 485737.71699905 6.99700022
142961.66799927 485736.62900162 0.94499999
142961.79399872 485736.90999985 1.13499999
142961.91400146 485737.17900085 1.30499995
142962.19300079 485738.22000122 5.82000017
142962.02899933 485737.43099976 1.42100000
142962.32199860 485738.48799896 5.82000017
142962.16799927 485737.74599838 1.67100000
142962.45800018 485738.79600143 6.03900003
142962.30400085 485738.04600143 1.84000003
142962.77399826 485740.02799988 11.64799976
142962.57500076 485739.05799866 6.21299982
142962.41999817 485738.30400085 1.98899996
142962.71300125 485739.39099884 6.66200018
142962.54499817 485738.57600021 2.09200001
142963.08800125 485740.85100174 13.31000042
142962.83800125 485739.63199997 6.46000004
142962.68199921 485738.86999893 2.18600011
142963.19699860 485741.04600143 12.99100018
142962.96200180 485739.89500046 6.51999998
142962.80799866 485739.14599991 2.30800009
142963.29399872 485741.23699951 12.85900021
142963.08800125 485740.21799850 7.12699986
142962.91999817 485739.40499878 2.54900002
142963.04899979 485739.71599960 2.95900011
142963.52199936 485741.68799973 12.65100002
142963.18399811 485740.03400040 3.31999993
142963.64199829 485741.95800018 12.83500004
142963.72999954 485742.09999847 12.43500042
142963.43399811 485740.64599991 4.21400023
142963.90599823 485742.62699890 13.98799992
142964.03900146 485742.93799973 14.32299995
142963.96799850 485742.58800125 12.34399986
142964.13099670 485743.05899811 13.62600040
142964.12500000 485742.42800140 7.57399988
142964.51999664 485743.65499878 11.50800037
142964.62500000 485743.88399887 11.59399986
142964.73500061 485744.11299896 11.59599972
142964.77100372 485743.93700027 9.14700031
142964.90599823 485744.24100113 9.35700035
142956.81299973 485727.07799911 12.39799976
142957.00899887 485727.40699959 11.61999989
142957.25099945 485728.20000076 14.43500042
142957.13199997 485727.65900040 11.57299995
142957.42800140 485728.70100021 15.75300026
142957.53699875 485728.93499947 15.81900024
142957.27299881 485727.74300003 9.48999977
142957.97200012 485729.71199989 14.53800011
142958.13999939 485729.61000061 10.06599998
142958.07300186 485729.30299950 8.42099953
142958.31200027 485730.11599922 11.50000000
142958.18099976 485729.51099968 8.25800037
142958.51699829 485730.80999947 14.14999962
142958.75799942 485731.60099983 16.95700073
142958.63800049 485731.04500008 13.97599983
142958.43600082 485730.12000084 9.01000023
142958.88100052 485731.84099960 16.81500053
142958.77000046 485731.33200073 14.07800007
142958.89400101 485731.58900070 14.05900002
142958.99000168 485731.78199959 13.98999977
142958.80799866 485730.64299965 6.53299999
142958.90900040 485730.78300095 5.83500004
142959.42399979 485732.88600159 15.94499969
142959.02199936 485731.02499962 5.89400005
142959.50500107 485733.00099945 15.41199970
142959.38600159 485732.44400024 12.39599991
142959.12300110 485731.22900009 5.83099985
142959.60599899 485733.15200043 14.82400036
142959.51599884 485732.72999954 12.53600025
142959.24599838 485731.47999954 5.77500010
142959.72100067 485733.37599945 14.67099953
142959.62900162 485732.94400024 12.32499981
142960.27999878 485734.43199921 13.59200001
142960.18899918 485734.00400162 11.26399994
142960.37400055 485734.58599854 13.18599987
142960.49300003 485734.83200073 13.14700031
142960.62500000 485735.11700058 13.24499989
142961.05599976 485736.56399918 18.61700058
142960.59500122 485734.38999939 6.71000004
142961.12799835 485736.59500122 17.45400047
142960.70700073 485734.60200119 6.52099991
142961.23799896 485736.79000092 17.09700012
142960.82500076 485734.83100128 6.34299994
142961.16099930 485735.81200027 9.07999992
142961.50400162 485737.09700012 14.67500019
142961.61500168 485737.33499908 14.72900009
142961.49700165 485736.45899963 8.54599953
142961.59400177 485736.62699890 8.19900036
142961.30500031 485735.23600006 0.50700003
142962.02299881 485738.32600021 16.11300087
142961.42699814 485735.47200012 0.31600001
142961.76599884 485736.76399994 6.02299976
142961.55300140 485735.73500061 0.31900001
142961.87799835 485736.97900009 5.85300016
142961.80799866 485736.63899994 3.96399999
142961.68299866 485736.04000092 0.64200002
142962.00199890 485737.23899841 5.88899994
142961.81200027 485736.32899857 0.83499998
142962.42399979 485738.92399979 13.76599979
142961.95000076 485736.63800049 1.05200005
142962.25600052 485737.76200104 5.80800009
142962.08499908 485736.93500137 1.20200002
142962.35800171 485737.96099854 5.67500019
142962.19800186 485737.18799973 1.36300004
142962.46900177 485738.20199966 5.77799988
142962.31299973 485737.45000076 1.57900000
142962.60200119 485738.52199936 6.18900013
142962.43899918 485737.73199844 1.77600002
142962.72900009 485738.81200027 6.43499994
142962.56100082 485738.00099945 1.89800000
142963.02600098 485739.95500183 11.54699993
142962.67499924 485738.24800110 1.99000001
142962.79000092 485738.49900055 2.09800005
142963.37200165 485741.00799942 14.79800034
142963.30599976 485740.68600082 12.99199963
142962.91099930 485738.75799942 2.17000008
142963.41699982 485740.89300156 12.74199963
142963.52199936 485741.09799957 12.60499954
142963.73600006 485741.84700012 15.57299995
142963.67499924 485741.18399811 10.33300018
142963.78599930 485741.37699890 9.95499992
142964.04599762 485742.35900116 14.24800014
142963.69300079 485740.61999893 4.42399979
142964.13800049 485742.50799942 13.84399986
142964.08300018 485742.23600006 12.30599976
142963.80199814 485740.85499954 4.49200010
142964.21399689 485742.56100082 12.80399990
142963.92599869 485741.13999939 4.75699997
142965.03199768 485743.89099884 9.11100006
142964.97599792 485743.60900116 7.50199986
142965.16600037 485744.16299820 9.04899979
142965.11599731 485743.91600037 7.63600016
142956.92200089 485726.92799950 12.21399975
142957.25899887 485727.86000061 14.46199989
142957.37099838 485728.08099937 14.33500004
142957.56200027 485728.64699936 15.99699974
142957.69200134 485728.92700005 16.10199928
142957.41999817 485727.70299911 9.60599995
142957.82099915 485728.70000076 11.18900013
142958.03699875 485729.37899971 13.41699982
142958.14300156 485729.56900024 13.12300014
142958.25799942 485729.80500031 13.07800007
142958.33499908 485729.85300064 11.98400021
142958.25000000 485729.46500015 9.90600014
142958.37699890 485729.75200081 10.12699986
142958.30199814 485729.40900040 8.28899956
142958.66400146 485730.78700066 14.43999958
142958.53300095 485730.19499969 11.26799965
142958.87099838 485731.47400093 16.93600082
142958.75000000 485730.91900063 13.95899963
142958.54999924 485730.00300026 9.04199982
142958.98600006 485731.70199966 16.80200005
142958.66400146 485730.21899986 8.84500027
142959.07899857 485731.80699921 15.93400002
142959.00000000 485731.44000053 13.96100044
142958.78900146 485730.47200012 8.75599957
142959.09899902 485731.62899971 13.78400040
142959.50199890 485732.86199951 17.62999916
142959.25699997 485731.14100075 5.73299980
142959.73799896 485733.07199860 14.84300041
142959.63700104 485732.59700012 12.27299976
142959.37400055 485731.38299942 5.71000004
142959.85400009 485733.28200150 14.53299999
142959.76499939 485732.86299896 12.26099968
142960.11000061 485733.88000107 15.16399956
142960.30300140 485733.87200165 11.12600040
142960.50500107 485734.52099991 13.37100029
142960.61199951 485734.70700073 13.01200008
142960.73899841 485734.98600006 13.15699959
142960.86100006 485735.23400116 13.08899975
142961.18600082 485736.49599838 18.83099937
142961.25099945 485736.48699951 17.40299988
142960.82699966 485734.48500061 6.42899990
142961.33900070 485736.58800125 16.57799911
142960.94300079 485734.71500015 6.30100012
142961.45700073 485736.81600189 16.40500069
142961.06200027 485734.94499969 6.12799978
142961.28400040 485735.71099854 9.07199955
142961.61800003 485736.95999908 14.51200008
142961.48699951 485736.00000000 7.75000000
142961.62099838 485736.30400085 7.98600006
142962.05899811 485738.09099960 16.58600044
142961.52799988 485735.55699921 2.58400011
142961.47600174 485735.30599976 1.19700003
142962.17200089 485738.31499863 16.47299957
142961.67200089 485735.92499924 3.25300002
142961.56399918 485735.40999985 0.40599999
142961.80899811 485736.26200104 3.75500011
142961.67900085 485735.64400101 0.33199999
142962.00500107 485736.89400101 5.93800020
142961.92599869 485736.51300049 3.82200003
142961.80300140 485735.92699814 0.57200003
142962.38499832 485738.43600082 13.30500031
142962.10200119 485737.07799911 5.76700020
142961.91400146 485736.17800140 0.76899999
142962.50500107 485738.70800018 13.49899960
142962.03699875 485736.45800018 0.99400002
142962.63600159 485738.97800064 13.47000027
142962.17900085 485736.77600098 1.21899998
142962.45100021 485737.78200150 5.53599977
142962.29199982 485737.01699829 1.26999998
142962.56299973 485738.03300095 5.69199991
142962.52799988 485737.55300140 1.67799997
142962.65100098 485737.83300018 1.91199994
142963.14099884 485739.85200119 11.70100021
142963.47800064 485740.86700058 14.77999973
142963.52099991 485740.74300003 12.67099953
142963.62799835 485740.95000076 12.50399971
142963.85400009 485741.73400116 15.58399963
142963.80300140 485741.18500137 11.24300003
142963.88399887 485741.22299957 9.95199966
142964.15599823 485742.22299957 14.17199993
142964.26399994 485742.46300125 14.32199955
142964.32700348 485742.40399933 12.47999954
142964.05500031 485741.06600189 4.90799999
142964.18199921 485741.34799957 5.06699991
142964.54499817 485742.77199936 11.62199974
142964.51499939 485742.62400055 10.77900028
142956.91600037 485726.21100044 11.07600021
142957.09400177 485726.74699974 12.68500042
142957.18600082 485726.86899948 11.99199963
142957.41400146 485727.61899948 14.69600010
142957.52199936 485727.82200050 14.47500038
142957.42900085 485727.40299988 12.26000023
142957.64400101 485728.09000015 14.59799957
142957.54399872 485727.63699913 12.19900036
142957.75299835 485728.25200081 13.95199966
142957.99800110 485728.82900047 14.61900043
142958.20500183 485729.18000031 13.79500008
142958.29899979 485729.32699966 13.31499958
142958.25400162 485729.12199974 12.22099972
142958.36199951 485729.33399963 12.08500004
142958.45999908 485729.51799965 11.88099957
142958.68700027 485730.22800064 14.24400043
142958.58100128 485729.75099945 11.69299984
142958.80099869 485730.43300056 13.90600014
142958.70000076 485729.97699928 11.46300030
142958.64199829 485729.71100044 10.03999996
142958.79700089 485730.16200066 11.30700016
142959.24700165 485731.60700035 16.30500031
142959.14400101 485731.13500023 13.77000046
142958.93500137 485730.17499924 8.61600018
142959.36399841 485731.81500053 15.94400024
142959.06900024 485730.45800018 8.64900017
142959.42300034 485731.82900047 14.86800003
142959.35800171 485731.52899933 13.25800037
142959.16799927 485730.65600014 8.55900002
142959.64799881 485732.56299973 17.46400070
142959.28799820 485730.90200043 8.51700020
142959.78900146 485732.60200119 14.95800018
142959.42800140 485730.93300056 5.95300007
142959.52999878 485731.13299942 5.82499981
142960.00500107 485733.03599930 14.78100014
142959.64400101 485731.36100006 5.72399998
142960.11500168 485733.20800018 14.22399998
142960.03200150 485732.81999969 12.12399960
142960.27299881 485733.65200043 15.34599972
142960.13899994 485733.02199936 11.93099976
142960.50299835 485734.43299866 18.30400085
142960.46599960 485733.64400101 11.31499958
142960.81600189 485734.98199844 17.26700020
142960.57799911 485733.86199951 11.16499996
142961.05899811 485735.51499939 17.55599976
142960.87099838 485734.63399887 12.74699974
142961.00299835 485734.92100143 12.85099983
142961.12900162 485735.18600082 12.87600040
142961.62799835 485736.59000015 16.43000031
142961.23099899 485734.70800018 6.10400009
142961.71599960 485736.70600128 15.77099991
142961.33300018 485734.89199829 5.80499983
142961.79100037 485736.79700089 15.13599968
142961.54199982 485735.62099838 8.67099953
142961.41600037 485735.01900101 5.35799980
142961.86800003 485736.87300110 14.29699993
142961.42499924 485734.76800156 2.70600009
142961.72200012 485735.86199951 7.33699989
142961.84999847 485736.13700104 7.41200018
142961.68299866 485735.33200073 2.96600008
142962.32199860 485738.09400177 16.99399948
142961.78900146 485735.55199814 2.94700003
142961.90999985 485735.84299850 3.32100010
142961.79999924 485735.31700134 0.41400000
142962.40700150 485737.89300156 13.26900005
142962.04800034 485736.17100143 3.73000002
142962.52099991 485738.13000107 13.26799965
142962.17399979 485736.46699905 4.04899979
142962.63999939 485738.38499832 13.32800007
142962.30400085 485736.77199936 4.37599993
142962.76499939 485738.66600037 13.53199959
142962.88999939 485738.93899918 13.64900017
142963.00299835 485739.16600037 13.55099964
142963.55799866 485740.58499908 16.10799980
142963.74300003 485740.89799881 15.38799953
142963.89599991 485741.27799988 15.98200035
142963.76100159 485740.61700058 12.27099991
142963.99599838 485741.40399933 15.19299984
142963.88800049 485740.88199997 12.26000023
142964.45099640 485742.29100037 14.56700039
142964.32299805 485741.06700134 5.18200016
142964.63500214 485742.27399826 10.62600040
142964.44100189 485741.31900024 5.21999979
142964.77500153 485742.58599854 10.83399963
142964.57499695 485741.60200119 5.25299978
142965.09999847 485743.53400040 13.48799992
142965.20400238 485743.71599960 13.13799953
142965.13999939 485742.73400116 4.79500008
142965.25099945 485742.95600128 4.69999981
142965.36399841 485743.17900085 4.57100010
