142853.03599930 485925.90200043 13.80700016
142853.30400085 485925.90999985 11.67599964
142852.75799942 485925.66200066 17.95100021
142853.73699951 485925.46800041 11.96199989
142853.18099976 485925.24200058 18.12899971
142853.75899887 485925.25300026 13.55900002
142854.04700089 485925.04199982 13.07400036
142854.35699844 485925.04599953 10.64000034
142854.43000031 485924.83399963 11.81599998
142854.93999863 485924.83799934 7.81799984
142855.25500107 485924.42200089 8.81499958
142855.49000168 485924.42300034 6.99300003
142854.67499924 485924.20499992 15.10799980
142854.78400040 485924.20499992 14.25899982
142854.75000000 485923.98399925 16.34900093
142854.91600037 485923.98299980 15.06900024
142855.41899872 485923.97999954 11.19799995
142854.96599960 485923.78700066 16.29299927
142855.54199982 485923.78100014 11.87300014
142854.93000031 485923.56800079 18.40399933
142854.97399902 485923.37100029 19.67099953
142855.22399902 485923.36700058 17.76499939
142855.19900131 485923.16300011 19.64100075
142855.45800018 485923.15800095 17.67700005
142856.47900009 485922.94099998 11.54800034
142855.59500122 485922.74600029 20.01099968
142855.79199982 485922.74099922 18.52300072
142856.13399887 485922.72999954 15.95400047
142855.88600159 485922.53499985 19.50000000
142856.00799942 485922.53000069 18.58399963
142856.16699982 485922.52599907 17.40200043
142856.00899887 485922.33099937 20.22299957
142856.73600006 485922.30500031 14.80300045
142856.25199890 485922.12000084 20.09300041
142856.44699860 485922.11199951 18.64100075
142856.29499817 485921.91799927 21.40699959
142856.50999832 485921.90999985 19.82099915
142856.77299881 485921.89900017 17.87599945
142856.51900101 485921.71899986 21.30100060
142857.26100159 485921.68600082 15.84300041
142856.84400177 485921.51099968 20.51600075
142857.49800110 485921.27799988 17.37500000
142857.94599915 485921.25200081 14.10799980
142857.72999954 485921.05400085 17.41399956
142858.19599915 485921.02599907 14.02999973
142857.81399918 485920.86300087 18.32900047
142858.77099991 485920.80599976 11.39000034
142858.68000031 485920.60000038 13.79599953
142859.14400101 485920.57099915 10.44600010
142858.11700058 485920.45100021 19.39500046
142858.82699966 485920.40299988 14.27999973
142858.39199829 485920.23800087 19.00900078
142859.68099976 485919.96500015 11.28199959
142860.01100159 485919.93899918 8.92700005
142860.31100082 485919.91699982 6.78900003
142859.90999985 485919.73900032 11.37100029
142860.12099838 485919.72200012 9.87500000
142860.56100082 485919.68700027 6.74599981
142859.40399933 485919.58099937 16.58300018
142859.70199966 485919.55599976 14.46399975
142859.85400009 485919.54599953 13.39799976
142859.57699966 485919.37400055 16.94199944
142859.92699814 485919.34399986 14.47500038
142860.02299881 485919.14100075 15.42099953
142860.23099899 485919.12199974 13.96300030
142860.86700058 485918.87599945 11.06999969
142860.61399841 485918.71800041 14.32900047
142861.08399963 485918.67399979 11.05300045
142861.12400055 485918.48200035 12.31799984
142860.63700104 485918.33699989 17.27899933
142860.87099838 485918.31399918 15.67099953
142861.35200119 485918.26499939 12.34099960
142860.83499908 485918.11700058 17.56900024
142860.94300079 485918.10600090 16.81500053
142861.25500107 485918.07399940 14.67300034
142861.56399918 485918.04199982 12.55200005
142861.15100098 485917.90600014 16.86499977
142861.44900131 485917.87400055 14.81799984
142861.58100128 485917.86000061 13.91100025
142861.84600067 485917.83099937 12.09300041
142850.70600128 485928.34399986 8.77200031
142850.81900024 485928.35400009 7.82299995
142851.13600159 485928.38199997 5.14400005
142850.89099884 485928.12700081 9.13000011
142851.07799911 485927.91200066 9.45300007
142851.82899857 485927.75099945 4.98000002
142851.63199997 485927.03400040 12.40499973
142851.79700089 485926.83300018 12.78199959
142851.84500122 485926.39200020 16.04100037
142851.92100143 485926.39500046 15.41899967
142852.13600159 485926.40500069 13.67099953
142852.24200058 485926.19099998 14.61299992
142852.56900024 485925.99399948 13.71300030
142852.72700119 485926.00000000 12.44699955
142852.35900116 485925.75399971 17.30500031
142852.43399811 485925.75699997 16.70100021
142852.69800186 485925.76600075 14.58899975
142853.13100052 485925.77899933 11.12899971
142853.59600067 485925.79400063 7.41099977
142852.37099838 485925.53700066 18.99399948
142852.57699966 485925.54299927 17.35400009
142852.87400055 485925.55299950 14.98900032
142852.70000076 485925.33300018 18.14100075
142852.87900162 485925.33699989 16.71500015
142852.74200058 485925.11700058 19.57900047
142852.93000031 485925.12100029 18.10700035
142853.75500107 485924.92200089 13.36299992
142853.88600159 485924.72400093 13.97399998
142854.68899918 485924.73299980 7.68400002
142853.46799850 485924.50600052 19.01099968
142854.11700058 485924.51199913 13.93599987
142854.02399826 485924.29700089 16.42000008
142854.35900116 485924.29899979 13.82199955
142854.65800095 485924.29999924 11.49800014
142855.05099869 485924.30100060 8.44200039
142855.31100082 485924.30299950 6.42799997
142854.32899857 485924.07500076 15.90299988
142854.60699844 485924.07399940 13.74699974
142854.89400101 485924.07399940 11.53299999
142854.79600143 485923.87500000 13.93099976
142854.94699860 485923.87400055 12.77000046
142855.17100143 485923.87400055 11.04199982
142855.02600098 485923.65200043 13.99199963
142855.32400131 485923.64900017 11.71000004
142854.49499893 485923.45599937 19.70299911
142854.83599854 485923.45299911 17.09600067
142855.01300049 485923.45000076 15.73999977
142855.14300156 485923.24799919 16.40999985
142855.12099838 485922.83499908 19.97200012
142855.53900146 485922.61899948 18.51899910
142855.73300171 485922.41399956 18.71800041
142855.89199829 485922.40900040 17.53000069
142856.02600098 485922.40399933 16.52700043
142856.30199814 485922.39599991 14.45499992
142856.25699997 485922.19000053 16.51000023
142856.54399872 485922.17900085 14.37399960
142856.73500061 485922.17200089 12.94099998
142856.00699997 485921.99699974 20.03400040
142856.29999924 485921.98600006 17.85799980
142856.30400085 485921.79700089 19.37899971
142856.55899811 485921.78700066 17.49399948
142856.39199829 485921.59900093 20.32600021
142856.57699966 485921.59099960 18.95899963
142856.58900070 485921.38599968 20.55400085
142856.76100159 485921.17099953 20.99399948
142856.83700180 485921.16600037 20.44199944
142857.24499893 485920.95299911 19.03300095
142858.04600143 485920.90900040 13.20300007
142858.60499954 485920.66799927 10.85799980
142858.39599991 485920.48900032 13.94400024
142858.60200119 485920.47800064 12.45300007
142858.83000183 485920.46400070 10.81299973
142857.91099930 485920.32799911 19.01899910
142858.64799881 485920.28000069 13.71800041
142858.15999985 485920.12999916 18.73100090
142858.29700089 485920.12100029 17.75000000
142858.93600082 485920.07699966 13.16800022
142858.49700165 485919.89999962 18.02499962
142859.94200134 485919.59499931 9.36299992
142860.27500153 485919.56800079 7.00099993
142860.45399857 485919.55500031 5.72399998
142859.60800171 485919.42399979 13.35700035
142859.68500137 485919.22299957 14.40400028
142859.88000107 485919.01399994 14.60099983
142861.45100021 485918.69300079 5.10400009
142859.96799850 485918.63800049 17.02099991
142860.40000153 485918.59900093 14.01200008
142860.54100037 485918.38800049 14.67000008
142860.65000153 485918.17799950 15.54899979
142860.79499817 485918.16399956 14.53499985
142861.15000153 485918.12800026 12.08399963
142861.31299973 485917.93000031 12.45899963
142860.88299942 485917.77400017 17.06299973
142861.11299896 485917.75099945 15.49100018
142861.51900101 485917.70700073 12.69999981
142861.09700012 485917.57799911 17.02300072
142861.42399979 485917.35700035 16.31599998
142850.28799820 485928.35499954 8.50699997
142850.60499954 485928.14500046 7.78499985
142850.93999863 485928.17399979 4.95699978
142850.72700119 485927.92799950 8.62600040
142851.21099854 485927.74600029 6.37699986
142851.60100174 485927.54899979 4.99100018
142851.51599884 485927.30400085 7.66200018
142851.63299942 485926.61700058 12.41600037
142851.49700165 485926.39999962 15.23900032
142851.88899994 485926.42099953 12.05700016
142851.67599869 485926.19199944 15.56999969
142851.75099945 485926.19599915 14.96199989
142852.12099838 485926.21199989 11.96399975
142851.99700165 485925.99900055 14.68700027
142852.33200073 485926.01199913 11.98999977
142852.23899841 485925.77000046 14.69600010
142852.66600037 485925.78599930 11.26000023
142852.39500046 485925.55500031 15.26000023
142852.61100006 485925.56200027 13.53600025
142852.67900085 485925.56500053 12.99199963
142852.93500137 485925.57200050 10.94299984
142853.48400116 485925.59000015 6.55399990
142852.83700180 485925.35099983 13.52400017
142853.15399933 485925.36000061 10.99100018
142852.48400116 485925.12299919 18.12100029
142852.71099854 485925.12899971 16.32399940
142852.57199860 485924.91600037 19.14500046
142852.69699860 485924.91900063 18.15699959
142852.88700104 485924.92200089 16.64900017
142853.03799820 485924.71999931 17.15200043
142853.20700073 485924.72400093 15.82499981
142853.59799957 485924.73100090 12.75100040
142853.75199890 485924.73200035 11.53499985
142853.49300003 485924.52099991 15.28800011
142853.83399963 485924.52300072 12.62399960
142853.30799866 485924.29800034 18.54299927
142853.53300095 485924.30100060 16.78899956
142854.00500107 485924.30500031 13.10900021
142853.39799881 485924.07600021 19.66600037
142853.85699844 485924.07900047 16.10300064
142854.86500168 485924.08300018 8.28499985
142855.16099930 485924.08399963 5.98799992
142853.70999908 485923.88199997 18.86199951
142853.92300034 485923.88299942 17.21500015
142854.02999878 485923.88199997 16.38699913
142854.00899887 485923.65800095 18.39200020
142854.11600113 485923.46299934 19.15900040
142854.27099991 485923.46299934 17.97699928
142854.21200180 485923.25600052 20.13599968
142854.50000000 485923.25200081 17.93899918
142854.34999847 485923.06100082 20.67600060
142854.65599823 485923.05800056 18.34199905
142854.90900040 485923.05400085 16.41300011
142855.07500076 485923.04999924 15.15900040
142855.20700073 485922.82799911 15.96500015
142855.47299957 485922.41300011 17.32399940
142855.84799957 485922.19599915 16.21199989
142855.98400116 485922.19099998 15.19799995
142856.09999847 485922.18799973 14.33199978
142856.28200150 485922.18199921 12.96399975
142856.41400146 485922.17799950 11.97999954
142856.04199982 485921.98800087 16.41799927
142856.54299927 485921.96999931 12.68099976
142857.92100143 485921.72299957 4.07700014
142857.36199951 485921.54400063 9.86800003
142858.17300034 485921.51000023 3.87899995
142856.30099869 485921.38500023 19.37999916
142856.72999954 485921.15099907 17.97900009
142857.47700119 485920.92799950 14.04800034
142857.69200134 485920.91600037 12.46800041
142857.90900040 485920.90699959 10.88500023
142856.83200073 485920.75099945 20.48699951
142857.33700180 485920.72500038 16.81299973
142857.06399918 485920.55299950 20.32500076
142857.18299866 485920.54700089 19.45999908
142857.39300156 485920.53400040 17.93400002
142857.18799973 485920.35000038 21.03400040
142857.54000092 485920.32799911 18.49699974
142857.99700165 485920.29999924 15.19600010
142857.49100113 485920.14999962 20.33799934
142857.74800110 485920.13199997 18.49300003
142857.86999893 485920.12400055 17.61000061
142857.91099930 485919.91600037 19.01799965
142859.00400162 485919.64100075 12.84000015
142860.52999878 485919.33099937 3.58599997
142859.73300171 485918.99699974 12.49899960
142859.87400055 485918.98600006 11.50500011
142860.08100128 485918.96800041 10.05000019
142859.88899994 485918.80200005 12.90799999
142859.66999817 485918.63100052 15.98999977
142859.86700058 485918.61300087 14.60400009
142860.05199814 485918.59799957 13.32499981
142860.27999878 485918.57799911 11.72000027
142859.85599899 485918.42099953 16.27899933
142860.16899872 485918.39299965 14.10000038
142860.31000137 485918.37999916 13.11400032
142860.02199936 485918.20400047 16.77899933
142860.53900146 485918.15500069 13.20499992
142860.72900009 485917.95599937 13.35999966
142860.90599823 485917.93899918 12.13599968
142860.52199936 485917.77300072 16.46400070
142860.94300079 485917.72999954 13.56799984
142860.87200165 485917.55999947 15.51599979
142861.12900162 485917.53300095 13.74699974
142861.34799957 485917.51000023 12.24600029
142861.13299942 485917.34900093 15.24199963
142861.31600189 485917.32900047 13.97999954
142861.49300003 485917.13199997 14.23299980
142861.67900085 485916.91399956 14.59500027
142849.95299911 485928.28800011 6.73199987
142850.05500031 485928.29700089 5.86199999
142850.12099838 485928.05400085 7.35699987
142850.28699875 485928.06800079 5.95400000
142850.32400131 485927.85199928 7.44199991
142850.63399887 485927.87800026 4.82800007
142850.53400040 485927.63999939 7.56400013
142850.85900116 485927.66699982 4.83400011
142850.75099945 485927.43899918 7.54300022
142851.02199936 485927.21100044 7.32200003
142851.13600159 485927.21800041 6.37099981
142851.34099960 485927.23399925 4.66900015
142851.38600159 485927.00300026 6.20900011
142851.94100189 485926.57399940 5.45300007
142851.52799988 485925.67399979 16.07200050
142851.72800064 485925.68300056 14.45600033
142851.50799942 485925.44199944 18.14999962
142851.97399902 485925.25399971 16.08799934
142852.24200058 485925.03100014 15.85799980
142852.41799927 485925.03499985 14.45300007
142852.43600082 485924.83499908 15.97299957
142852.65900040 485924.83900070 14.19900036
142852.38000107 485924.61800003 18.19199944
142852.74700165 485924.62599945 15.29300022
142853.02199936 485924.63100052 13.10900021
142853.32500076 485924.43499947 12.36699963
142853.48199844 485924.43799973 11.13000011
142853.52899933 485924.20700073 12.68099976
142852.91299820 485923.98399925 19.28100014
142853.46500015 485923.98900032 14.97799969
142853.34999847 485923.78199959 17.56699944
142853.73799896 485923.78400040 14.55000019
142854.62099838 485923.78499985 7.69299984
142854.91099930 485923.78599930 5.43400002
142853.28699875 485923.56900024 19.80599976
142853.51900101 485923.56999969 18.01399994
142853.70500183 485923.56999969 16.57200050
142854.00000000 485923.56900024 14.29399967
142853.92200089 485923.36300087 16.60099983
142854.22499847 485923.36100006 14.27000046
142854.33200073 485923.15900040 15.09099960
142854.58700180 485923.15699959 13.13799953
142854.63100052 485922.94899940 14.51500034
142855.64400101 485922.72200012 8.54399967
142856.31800079 485922.70999908 3.41899991
142854.36500168 485922.52499962 20.07500076
142855.65800095 485922.30500031 11.86699963
142854.91400146 485922.10799980 19.26099968
142855.13100052 485922.10099983 17.63599968
142855.22999954 485921.90699959 18.46999931
142855.41299820 485921.90099907 17.10199928
142855.63999939 485921.89299965 15.39799976
142855.85499954 485921.68199921 15.47299957
142856.08700180 485921.67399979 13.74300003
142856.42900085 485921.66099930 11.19099998
142855.68500137 485921.49799919 18.30999947
142856.01800156 485921.48600006 15.83399963
142855.70899963 485921.28599930 19.87999916
142855.92399979 485921.27700043 18.29100037
142857.09199905 485921.01799965 11.36100006
142857.66099930 485920.99399948 7.16800022
142856.07199860 485920.87199974 20.48900032
142856.20700073 485920.86700058 19.48299980
142856.43700027 485920.85499954 17.79100037
142856.60699844 485920.84700012 16.54999924
142856.73099899 485920.63500023 17.33499908
142856.79999924 485920.63199997 16.82600021
142856.96300125 485920.62299919 15.63599968
142857.54000092 485920.59199905 11.41600037
142856.73300171 485920.44199944 18.89999962
142857.13299942 485920.42000008 15.98700047
142856.84700012 485920.24799919 19.62899971
142857.19699860 485920.22800064 17.08799934
142856.97900009 485920.04800034 20.25799942
142857.56399918 485920.01099968 16.02499962
142857.72299957 485920.00099945 14.87699986
142857.14199829 485919.84000015 20.69899940
142858.49900055 485919.54199982 12.65400028
142858.74900055 485919.52400017 10.87399960
142858.67599869 485919.34399986 12.90799999
142858.92300034 485919.32600021 11.14999962
142858.89500046 485919.11599922 13.10000038
142859.05599976 485919.10400009 11.95199966
142859.32699966 485918.89800072 11.55599976
142859.50099945 485918.88299942 10.32199955
142859.31299973 485918.70800018 13.22900009
142859.77999878 485918.66799927 9.93299961
142859.45000076 485918.51399994 13.75599957
142859.75600052 485918.48800087 11.60499954
142859.61500168 485918.29599953 14.26900005
142860.00099945 485918.26199913 11.56499958
142859.68600082 485918.09499931 15.37300014
142860.03300095 485918.06399918 12.95699978
142860.03799820 485917.67799950 16.09000015
142860.28599930 485917.46599960 15.92899990
142860.48799896 485917.44599915 14.52299976
142860.68000031 485917.25099945 14.64999962
142860.82400131 485917.05100060 15.18599987
142860.97299957 485916.84499931 15.72799969
142850.01100159 485927.83499908 5.85400009
142850.05799866 485927.61100006 7.34800005
142850.19400024 485927.62299919 6.18900013
142850.40700150 485927.42099953 6.20200014
142850.46900177 485927.18000031 7.71000004
142850.82099915 485927.20700073 4.75899982
142850.80500031 485926.96599960 6.87300014
142851.12099838 485926.75799942 6.14400005
142851.24900055 485926.76600075 5.08300018
142851.38499832 485926.54199982 5.86999989
142851.88499832 485926.13299942 5.37500000
142851.98899841 485925.91500092 6.36800003
142851.47000122 485925.42399979 14.44400024
142851.55400085 485925.42799950 13.76500034
142852.55199814 485925.25699997 7.44999981
142851.43600082 485924.98699951 18.31299973
142851.52600098 485924.98999977 17.59300041
142851.92399979 485925.00200081 14.40600014
142851.91899872 485924.79700089 16.14599991
142852.11700058 485924.80299950 14.55000019
142852.28400040 485924.59600067 14.98299980
142852.43799973 485924.59900093 13.75500011
142852.90100098 485924.61000061 10.07999992
142852.68899918 485924.39900017 13.45800018
142853.15299988 485924.40699959 9.78800011
142853.41500092 485924.41300011 7.70800018
142853.14799881 485924.17499924 11.74600029
142853.36999893 485923.95999908 11.79899979
142853.50500107 485923.96100044 10.73499966
142853.00199890 485923.53400040 18.17799950
142853.51399994 485923.53499985 14.18900013
142854.68000031 485923.53700066 5.12500000
142853.75999832 485923.32799911 13.99499989
142853.74800110 485923.13100052 15.72500038
142854.00400162 485923.12899971 13.74199963
142853.88800049 485922.92000008 16.36599922
142854.24700165 485922.91699982 13.60599995
142854.55500031 485922.69799995 13.02099991
142855.18999863 485922.69000053 8.16699982
142854.79000092 485922.47400093 13.04399967
142855.10300064 485922.46899986 10.66800022
142855.31000137 485922.26799965 10.71599960
142854.87599945 485922.05900002 15.81099987
142855.42499924 485922.04599953 11.66300011
142854.63199997 485921.87700081 19.21800041
142854.78900146 485921.87199974 18.04100037
142855.42200089 485921.85300064 13.27000046
142855.46400070 485921.64900017 14.64200020
142855.66500092 485921.64200020 13.13399982
142855.86600113 485921.22400093 15.03100014
142856.29600143 485921.20700073 11.83899975
142855.49200058 485921.03800011 19.47999954
142855.69900131 485921.02799988 17.94099998
142855.91899872 485921.01799965 16.31500053
142855.51300049 485920.84000015 20.92900085
142855.82500076 485920.82600021 18.63500023
142856.01399994 485920.81800079 17.24399948
142855.84600067 485920.62400055 20.14699936
142855.97299957 485920.61800003 19.20899963
142856.41400146 485920.59499931 15.97500038
142855.88800049 485920.42399979 21.46299934
142856.01800156 485920.41699982 20.52300072
142857.66199875 485920.32900047 8.49800014
142856.03599930 485920.22999954 21.91500092
142856.20800018 485920.22100067 20.65800095
142856.38999939 485920.21100044 19.33399963
142856.82400131 485920.18600082 16.17399979
142856.58599854 485920.00699997 19.49600029
142856.80199814 485919.99300003 17.92499924
142856.96599960 485919.98299980 16.73399925
142857.20700073 485919.76799965 16.65099907
142856.93700027 485919.58099937 20.29199982
142857.15900040 485919.56500053 18.69700050
142857.25799942 485919.37700081 19.48800087
142859.29000092 485919.02000046 6.66800022
142859.69599915 485918.98999977 3.77600002
142858.87599945 485918.86400032 11.17700005
142859.47499847 485918.81699944 6.90999985
142859.68500137 485918.80100060 5.40600014
142858.92300034 485918.66799927 12.44600010
142859.33800125 485918.63199997 9.50199986
142858.53300095 485918.51600075 16.69599915
142858.71599960 485918.50099945 15.39900017
142858.94499969 485918.48399925 13.78600025
142859.13999939 485918.46699905 12.41399956
142858.73799896 485918.29599953 16.92000008
142859.46200180 485918.23299980 11.83300018
142858.99000168 485918.08099937 16.73800087
142859.14899826 485918.06699944 15.62800026
142859.36700058 485918.04800034 14.09899998
142859.71799850 485918.01700020 11.64000034
142859.77700043 485917.82099915 12.79599953
142859.93299866 485917.80699921 11.70899963
142859.70000076 485917.63299942 14.94299984
142860.17900085 485917.58699989 11.61499977
142859.88899994 485917.42499924 15.19900036
142859.89099884 485917.24699974 16.64299965
142860.13499832 485917.22200012 14.95899963
142860.78499985 485917.15500069 10.47000027
142861.00999832 485916.94499969 10.45400047
142861.17699814 485916.73600006 10.89400005
142861.23400116 485916.52899933 12.16699982
142849.87799835 485927.25600052 8.31900024
142850.07799911 485927.27400017 6.62799978
142850.23099899 485927.04500008 7.31500006
142850.33100128 485927.05200005 6.47700024
142850.53200150 485927.06900024 4.79799986
142850.47399902 485926.83799934 7.14200020
142850.61999893 485926.84799957 5.92399979
142850.83399963 485926.62700081 6.07999992
142851.16999817 485926.42200089 5.18699980
142851.31399918 485926.21500015 5.76000023
142851.54299927 485926.00000000 5.76700020
142851.79700089 485925.78499985 5.57600021
142851.31499863 485925.52000046 11.50199986
142851.94699860 485925.54899979 6.36100006
142852.25099945 485925.35099983 5.63199997
142851.38000107 485925.08200073 14.59899998
142851.83499908 485925.09900093 10.95300007
142851.59500122 485924.88299942 14.58399963
142852.10800171 485924.89999962 10.47900009
142851.60800171 485924.67000008 16.24300003
142851.90499878 485924.67799950 13.86999989
142852.05500031 485924.47500038 14.38000011
142852.32099915 485924.25399971 14.14500046
142852.50999832 485924.25799942 12.64900017
142852.79700089 485924.03899956 12.22799969
142853.17599869 485923.83300018 10.98400021
142853.39300156 485923.83499908 9.29899979
142853.75600052 485923.84000015 6.44099998
142853.46099854 485923.61899948 10.55599976
142853.18700027 485923.40699959 14.42300034
142854.25799942 485923.20599937 7.76800013
142854.63399887 485923.20800018 4.84899998
142853.41799927 485922.99699974 16.02099991
142853.57300186 485922.78400040 16.57699966
142854.65900040 485922.54999924 10.06400013
142854.15100098 485922.36100006 15.57800007
142854.55799866 485922.35499954 12.47799969
142854.21300125 485922.14100075 16.92099953
142854.40399933 485922.13699913 15.47399998
142854.63499832 485921.93600082 15.33300018
142855.22399902 485921.92200089 10.87399960
142855.17200089 485921.72200012 12.93400002
142855.42300034 485921.71599960 11.04599953
142855.28900146 485921.52300072 13.67899990
142855.29700089 485921.30599976 15.40200043
142855.54499817 485921.09199905 15.24800014
142855.64400101 485920.88800049 16.16399956
142856.38899994 485920.85700035 10.64400005
142855.25899887 485920.70100021 20.69599915
142855.73600006 485920.68099976 17.17499924
142855.91199875 485920.67099953 15.86900043
142855.81499863 485920.47699928 18.23500061
142855.70700073 485920.29800034 20.54000092
142855.96599960 485920.28499985 18.64500046
142857.44900131 485920.20899963 7.78800011
142855.80599976 485920.09900093 21.41200066
142855.98899841 485920.08900070 20.07900047
142856.16199875 485920.07999992 18.81299973
142856.75400162 485919.84499931 16.17499924
142857.00899887 485919.62000084 16.04800034
142857.03699875 485919.42900085 17.39900017
142857.04899979 485919.22400093 19.00000000
142857.36899948 485919.01700020 18.22999954
142859.37500000 485918.67600060 5.51000023
142858.79399872 485918.53599930 11.15699959
142858.49200058 485918.35300064 15.00500011
142858.80099869 485918.32999992 12.82299995
142858.97700119 485918.31399918 11.57100010
142858.53499985 485918.15399933 16.31200027
142858.95500183 485918.12000084 13.35900021
142859.19499969 485918.09900093 11.66300011
142858.77399826 485917.94000053 16.22100067
142859.12799835 485917.90999985 13.73900032
142858.87300110 485917.74099922 17.09300041
142859.46400070 485917.68700027 12.97599983
142859.69699860 485917.66699982 11.34300041
142859.07099915 485917.53100014 17.28199959
142861.21500015 485917.14599991 3.87100005
142860.52099991 485917.02700043 10.23499966
142859.96400070 485916.89100075 15.67300034
142860.14099884 485916.67099953 16.10499954
142860.80300140 485916.60000038 11.56299973
142860.73899841 485916.23100090 15.11100006
142860.81700134 485916.22200012 14.57600021
142861.10400009 485916.01399994 14.07100010
142850.19900131 485926.61400032 7.59100008
142850.52299881 485926.63899994 4.88600016
142850.21799850 485926.39999962 9.22000027
142850.59500122 485926.42399979 6.08500004
142850.87500000 485926.21699905 5.62900019
142851.00099945 485926.22500038 4.58099985
142850.63700104 485925.98999977 9.34200001
142851.11299896 485926.01799965 5.43200016
142850.63600159 485925.74500084 11.38300037
142850.88600159 485925.75900078 9.31999969
142851.36299896 485925.78499985 5.41800022
142851.24200058 485925.55200005 8.27400017
142851.57899857 485925.56900024 5.50899982
142851.07899857 485925.31900024 11.45600033
142850.95000076 485925.08900070 14.33600044
142851.40100098 485925.10799980 10.71100044
142851.65499878 485925.11800003 8.64900017
142850.96799850 485924.87500000 15.97399998
142851.16400146 485924.88299942 14.39700031
142851.65499878 485924.89999962 10.45400047
142851.24900055 485924.68000031 15.40999985
142851.91500092 485924.70199966 10.07299995
142851.48400116 485924.47400093 15.28999996
142852.16699982 485924.49300003 9.83899975
142851.74800110 485924.25699997 15.02900028
142852.11500168 485924.03700066 13.99400043
142852.27899933 485924.04100037 12.69699955
142852.30300140 485923.83499908 14.21199989
142852.45600128 485923.83699989 13.00699997
142853.05300140 485923.61800003 10.18700027
142853.19900131 485923.62000084 9.04199982
142853.61800003 485923.62599945 5.74800014
142853.27999878 485923.41799927 10.09099960
142852.24499893 485923.20299911 19.87000084
142852.40599823 485923.00600052 20.24500084
142852.95000076 485922.78000069 17.89100075
142855.01599884 485922.77400017 1.95899999
142853.17800140 485922.56800079 17.88100052
142854.15399933 485922.35600090 12.07900047
142854.43999863 485922.35199928 9.87800026
142853.96099854 485922.14399910 15.31099987
142854.65999985 485921.92900085 11.66800022
142855.02099991 485921.72100067 10.58199978
142854.96799850 485921.52099991 12.64599991
142855.09600067 485921.30400085 13.44200039
142854.79999924 485921.09799957 17.44700050
142855.06299973 485920.89999962 17.03700066
142855.22999954 485920.68000031 17.56200027
142855.35300064 485920.67499924 16.64599991
142857.22900009 485920.40399933 4.36399984
142855.64400101 485920.27300072 17.70800018
142857.10499954 485920.20299911 6.96899986
142855.69499969 485920.08399963 18.86899948
142856.37599945 485919.83600044 15.63199997
142857.63499832 485919.56299973 8.15299988
142857.72499847 485919.36000061 9.11499977
142857.26300049 485918.80599976 17.25200081
142857.48899841 485918.59900093 17.20400047
142857.57600021 485918.39800072 18.20100021
142857.65999985 485918.18600082 19.29899979
142858.22800064 485918.13899994 15.27700043
142857.82400131 485917.99399948 19.59900093
142858.33300018 485917.95100021 16.02599907
142859.15800095 485917.67200089 11.95199966
142858.43000031 485917.55999947 18.50200081
142858.54600143 485917.35799980 19.25300026
142859.72399902 485917.06900024 12.52999973
142859.90800095 485917.05100060 11.25300026
142860.09400177 485917.03300095 9.95899963
142860.08700180 485916.82999992 11.68299961
142860.41799927 485916.79800034 9.39599991
142860.16400146 485916.62999916 12.73900032
142860.36899948 485916.60899925 11.32699966
142860.92800140 485916.36300087 9.03899956
142860.50500107 485916.21299934 13.53999996
142860.68299866 485916.00900078 13.84899998
142860.91699982 485915.98099995 12.25199986
142861.06499863 485915.78699970 12.71199989
142849.70800018 485926.79700089 5.18400002
142849.86299896 485926.80900002 3.87400007
142849.71400070 485926.54800034 7.19199991
142850.09400177 485926.57699966 4.00400019
142849.99200058 485926.35300064 6.64799976
142850.20800018 485926.36899948 4.83900023
142850.26499939 485926.14200020 6.26300001
142850.41299820 485926.15399933 5.03000021
142850.62400055 485925.95199966 5.05399990
142850.04999924 485925.67300034 11.81999969
142850.33000183 485925.69000053 9.50699997
142850.31000137 485925.46100044 11.55599976
142850.54899979 485925.24900055 11.44200039
142850.76800156 485925.26000023 9.65900040
142850.94900131 485925.26799965 8.18099976
142851.24499893 485925.28300095 5.75099993
142851.57799911 485925.06800079 4.95499992
142851.17599869 485924.83200073 10.02700043
142851.34799957 485924.83900070 8.63300037
142851.75999832 485924.85499954 5.29099989
142851.35200119 485924.63199997 10.31400013
142851.95800018 485924.65399933 5.42299986
142850.63399887 485924.38899994 17.88100052
142851.02299881 485924.40200043 14.76500034
142850.96900177 485924.17600060 17.04299927
142851.08800125 485924.17900085 16.08900070
142851.41299820 485923.95800018 15.40699959
142851.62900162 485923.96299934 13.68099976
142851.91400146 485923.76700020 13.10000038
142851.96500015 485923.53899956 14.58699989
142853.56800079 485923.14299965 5.40500021
142853.28300095 485922.93700027 9.33300018
142853.40000153 485922.93799973 8.41399956
142852.23500061 485922.70800018 19.34300041
142852.25000000 485922.49500084 21.00000000
142855.19400024 485922.04999924 1.83000004
142854.04199982 485921.85799980 12.34899998
142854.42499924 485921.85300064 9.42199993
142854.13700104 485921.65800095 13.26000023
142854.26800156 485921.65600014 12.26599979
142854.45800018 485921.65200043 10.82400036
142854.49100113 485921.44899940 12.25199986
142854.64199829 485921.44599915 11.10200024
142855.85200119 485921.20000076 3.75000000
142854.22499847 485921.02700043 17.80500031
142854.72499847 485921.01199913 14.04800034
142854.48899841 485920.82900047 17.39100075
142854.93199921 485920.81299973 14.07999992
142854.45500183 485920.61700058 19.40099907
142854.75000000 485920.60600090 17.20599937
142855.09700012 485920.59199905 14.62399960
142854.72100067 485920.41900063 18.97699928
142854.86299896 485920.41300011 17.93099976
142855.02199936 485920.20499992 18.40399933
142855.22399902 485920.19700050 16.91500092
142856.73400116 485920.12800026 5.76900005
142855.36800003 485920.00099945 17.40900040
142856.17599869 485919.54500008 14.89900017
142856.05199814 485919.36000061 17.40099907
142855.87599945 485919.17000008 20.32799911
142856.29199982 485919.14399910 17.31299973
142855.97200012 485918.97200012 21.20599937
142856.61999893 485918.74200058 18.08099937
142856.85599899 485918.72699928 16.38699913
142857.05699921 485918.51899910 16.52899933
142857.18199921 485918.51000023 15.64000034
142857.89500046 485918.26099968 12.17300034
142857.13499832 485918.11199951 19.29700089
142857.32300186 485918.09700012 17.96100044
142857.44400024 485917.90800095 18.57699966
142857.90200043 485917.87000084 15.33800030
142857.66099930 485917.68499947 18.73900032
142858.08000183 485917.64900017 15.78299999
142858.16600037 485917.64100075 15.18299961
142858.21699905 485917.45800018 16.29999924
142858.36800003 485917.44499969 15.23799992
142858.88100052 485917.39999962 11.63899994
142858.20199966 485917.27000046 17.96999931
142858.45000076 485917.24699974 16.24099922
142858.32500076 485917.08099937 18.57900047
142858.57099915 485917.05599976 16.86199951
142858.70600128 485917.04400063 15.92300034
142858.76499939 485916.83900070 17.16200066
142859.54399872 485916.76199913 11.76000023
142858.97700119 485916.62599945 17.27099991
142859.75299835 485916.36100006 13.45600033
142859.91199875 485916.34300041 12.36999989
142860.18799973 485916.31299973 10.45899963
142860.36100006 485916.29700089 9.27299976
142860.60800171 485916.27000046 7.56500006
142860.18399811 485916.11899948 12.10499954
142860.57600021 485916.07699966 9.41100025
142860.96099854 485916.03499985 6.76599979
142860.19200134 485915.93299961 13.58899975
142860.39799881 485915.90900040 12.17899990
142860.80899811 485915.86299992 9.37199974
142860.20899963 485915.75699997 14.90499973
142860.30300140 485915.74600029 14.26700020
142860.97499847 485915.66899967 9.68799973
142860.83100128 485915.50000000 12.21000004
142849.80099869 485926.37100029 4.27600002
142849.64799881 485926.13100052 7.43300009
142849.96699905 485926.15500069 4.76399994
142850.19400024 485925.95199966 4.68200016
142850.40499878 485925.72100067 4.93699980
142850.51699829 485925.27199936 7.79400015
142850.88100052 485925.29000092 4.80700016
142851.18099976 485925.06999969 4.28700018
142850.89099884 485924.83300018 8.49600029
142851.34500122 485924.85400009 4.81500006
142850.93999863 485924.62999916 9.80799961
142851.55599976 485924.65500069 4.82700014
142851.08200073 485924.41600037 10.48600006
142851.17599869 485924.42000008 9.71899986
142851.76499939 485924.44000053 4.96600008
142850.72499847 485924.18199921 15.18500042
142851.38700104 485924.20299911 9.87899971
142850.82300186 485923.94799995 16.33600044
142851.11600113 485923.75300026 15.68900013
142851.28799820 485923.52899933 16.20800018
142851.57600021 485923.53400040 13.91100025
142851.05899811 485923.32299995 19.67399979
142851.66099930 485923.33200073 14.92599964
142851.20800018 485923.12000084 20.19599915
142851.83399963 485923.12800026 15.28299999
142851.87200165 485922.92799950 16.63400078
142851.79700089 485922.70299911 19.07699966
142852.11500168 485922.70499992 16.59900093
142852.07699966 485922.48800087 18.68799973
142853.41600037 485922.48800087 8.29100037
142852.07500076 485922.28100014 20.40900040
142852.33800125 485922.27899933 18.37599945
142852.25699997 485922.07099915 20.72999954
142852.38499832 485922.06900024 19.74500084
142853.03200150 485921.85899925 16.46500015
142852.65399933 485921.67200089 20.94499969
142853.42800140 485921.65999985 15.03400040
142853.29399872 485921.45899963 17.74200058
142853.86100006 485921.44899940 13.42800045
142853.81200027 485921.23800087 15.52799988
142854.02199936 485921.23399925 13.94600010
142854.55599976 485921.22100067 9.90100002
142854.92599869 485920.98900032 8.96500015
142855.66699982 485920.96800041 3.40199995
142855.77299881 485920.96500015 2.59599996
142854.39899826 485920.59399986 16.30999947
142854.60499954 485920.58699989 14.77200031
142854.10499954 485920.41699982 20.05400085
142854.44599915 485920.20599937 19.15399933
142854.50500107 485920.01300049 20.28599930
142855.10599899 485919.77199936 17.61700058
142854.96200180 485919.57699966 20.33900070
142855.77099991 485919.53599930 14.40100002
142855.14400101 485919.37400055 20.59799957
142857.22600174 485919.05500031 7.10500002
142855.47800064 485918.96599960 21.37199974
142855.64899826 485918.95499992 20.15099907
142855.57600021 485918.77700043 22.18499947
142856.35599899 485918.52899933 18.16699982
142856.64599991 485918.51000023 16.09300041
142856.72800064 485918.30400085 17.13699913
142857.17499924 485918.27300072 13.95100021
142857.42800140 485918.25399971 12.14099979
142856.55199814 485918.11400032 20.08699989
142857.35200119 485918.05200005 14.38399982
142856.69400024 485917.92499924 20.53700066
142857.08200073 485917.89299965 17.79299927
142857.03599930 485917.69400024 19.80299950
142857.80400085 485917.62899971 14.36699963
142857.63899994 485917.46299934 17.02700043
142858.00500107 485917.43099976 14.44499969
142857.44800186 485917.28899956 19.94700050
142858.21900177 485917.21899986 14.53600025
142857.68700027 485917.08900070 19.73699951
142858.40200043 485917.02199936 14.74600029
142859.10400009 485916.95899963 9.83600044
142859.28699875 485916.94300079 8.55900002
142859.52799988 485916.92000008 6.87099981
142858.44599915 485916.81599998 16.11100006
142858.64300156 485916.79700089 14.74199963
142859.23699951 485916.74200058 10.60099983
142859.64099884 485916.70199966 7.78299999
142859.69800186 485916.69599915 7.39900017
142858.58200073 485916.61300087 16.73500061
142858.76200104 485916.59499931 15.49100018
142858.85800171 485916.39900017 16.35600090
142858.94400024 485916.38999939 15.76700020
142859.56200027 485916.32699966 11.49499989
142859.54899979 485916.13699913 13.18099976
142859.75000000 485916.11599922 11.78999996
142859.99800110 485916.08900070 10.08500004
142859.68299866 485915.93400002 13.81299973
142860.09400177 485915.88899994 10.99199963
142860.22200012 485915.87500000 10.11299992
142859.78699875 485915.74600029 14.55500031
142859.95399857 485915.72700024 13.40900040
142860.49200058 485915.66699982 9.73900032
142860.36199951 485915.49600029 12.16100025
142860.50099945 485915.48099995 11.20499992
142861.11999893 485915.40900040 6.98999977
142860.50600052 485915.28800011 12.76500034
142860.71599960 485915.26399994 11.33100033
142860.91299820 485915.04399967 11.61400032
142860.78200150 485914.88700008 13.93400002
142861.10499954 485914.84599972 11.76099968
142861.29499817 485914.62399960 12.12600040
142849.38700104 485926.05599976 7.04899979
142849.64500046 485926.07600021 4.88399982
142849.88499832 485925.84700012 4.92100000
142850.14599991 485925.62599945 4.72399998
142850.37900162 485925.41500092 4.64200020
142850.61999893 485925.19300079 4.60599995
142850.23400116 485924.94899940 9.61100006
142850.85200119 485924.98100090 4.56300020
142851.12599945 485924.78400040 4.07499981
142850.62300110 485924.53599930 10.01700020
142851.19599915 485924.56100082 5.36499977
142850.83900070 485924.31999969 10.12100029
142851.53400040 485924.34799957 4.50699997
142851.76499939 485924.11400032 4.64599991
142851.31399918 485923.89399910 9.95499992
142851.97800064 485923.91399956 4.63999987
142851.56999969 485923.66200066 9.87800026
142852.20999908 485923.67900085 4.78200006
142850.89300156 485923.23399925 18.64399910
142851.40999985 485923.24399948 14.56200027
142850.99800110 485923.03199959 19.49200058
142851.08100128 485923.03300095 18.85300064
142851.45500183 485923.03899956 15.90400028
142851.45999908 485922.81599998 17.70100021
142851.68700027 485922.60000038 17.73299980
142853.52299881 485922.39699936 5.17899990
142852.14199829 485922.18300056 17.65099907
142852.08200073 485921.97500038 19.81800079
142852.19800186 485921.97500038 18.91500092
142852.41799927 485921.97400093 17.22999954
142852.71699905 485921.77899933 16.52599907
142852.52299881 485921.57200050 19.72200012
142852.91999817 485921.56800079 16.69199944
142852.66099930 485921.36400032 20.36599922
142852.78799820 485921.36199951 19.39900017
142853.10499954 485921.35799980 16.99699974
142853.50899887 485921.12700081 15.75300026
142854.66199875 485920.90800095 8.64599991
142855.53799820 485920.88500023 2.04800010
142854.12599945 485920.50900078 16.07299995
142855.77399826 485920.25099945 5.45699978
142855.88199997 485920.24699974 4.65199995
142856.07400131 485920.04199982 4.86100006
142856.32799911 485919.81200027 4.78900003
142854.81200027 485919.67600060 17.65099907
142855.01499939 485919.46699905 17.78599930
142854.92800140 485919.27199936 20.06800079
142857.05400085 485918.95400047 6.23600006
142855.44800186 485918.86300087 19.40900040
142855.42599869 485918.66900063 21.17900085
142856.05400085 485918.62999916 16.65200043
142855.72999954 485918.45299911 20.60300064
142856.38700104 485918.40900040 15.88199997
142855.77999878 485918.24600029 21.92700005
142856.16400146 485918.21699905 19.18899918
142856.46300125 485918.19700050 17.04299927
142856.49100113 485918.01099968 18.35700035
142856.61700058 485918.00200081 17.45299911
142857.16899872 485917.96199989 13.52000046
142856.56600189 485917.80200005 19.49799919
142856.68000031 485917.79299927 18.68799973
142856.96200180 485917.77099991 16.68799973
142857.24800110 485917.75000000 14.65200043
142858.18399811 485917.67799950 8.00699997
142856.71599960 485917.60700035 19.93700027
142857.21099854 485917.56699944 16.45199966
142858.34700012 485917.47599983 8.41100025
142856.82899857 485917.41399956 20.66200066
142857.49300003 485917.17600060 17.48399925
142857.49399948 485916.97100067 19.15600014
142857.51300049 485916.78100014 20.58399963
142858.34899902 485916.70199966 14.77200031
142857.86299896 485916.55999947 19.68799973
142858.57300186 485916.49300003 14.77000046
142858.77700043 485916.28000069 14.94200039
142859.42800140 485916.21500015 10.43700027
142859.60599899 485916.00499916 10.79100037
142859.70199966 485915.99400043 10.13199997
142859.80500031 485915.80599976 10.89000034
142859.92699814 485915.79199982 10.06000042
142860.20299911 485915.76399994 8.15999985
142859.58599854 485915.64599991 13.90400028
142859.82600021 485915.61900043 12.26599979
142859.91400146 485915.60900021 11.66899967
142859.72299957 485915.43799973 14.56299973
142860.08399963 485915.39700031 12.09399986
142860.18000031 485915.38599968 11.43999958
142860.08700180 485915.19999981 13.69999981
142860.23099899 485915.18200016 12.72900009
142860.31299973 485914.99400043 13.65299988
142860.58100128 485914.96199989 11.83600044
142860.38000107 485914.79100037 14.80500031
142860.77600098 485914.74300003 12.13599968
142860.99599838 485914.53999996 12.10400009
142861.06900024 485914.53100014 11.61299992
142849.16400146 485926.07900047 5.03599977
142849.40599823 485925.86000061 4.97499990
142849.66299820 485925.63299942 4.85400009
142850.16099930 485925.20199966 4.55000019
142850.32300186 485924.99200058 5.03200006
142849.97999954 485924.75099945 9.67399979
142850.33800125 485924.32099915 10.44499969
142851.04000092 485924.35199928 4.74900007
142850.50899887 485924.10199928 10.93099976
142851.17900085 485924.12800026 5.51900005
142850.77299881 485923.88999939 10.63399982
142851.96200180 485923.48200035 4.79400015
142852.19699860 485923.28199959 4.62200022
142850.81600189 485923.03800011 17.30299950
142850.92200089 485922.82500076 18.24600029
142851.12300110 485922.82900047 16.66500092
142851.40599823 485922.60400009 16.33099937
142851.51599884 485922.40299988 17.13599968
142851.63600159 485922.40399933 16.20800018
142851.85900116 485922.18000031 16.31100082
142851.82899857 485921.98399925 18.16399956
142851.97100067 485921.98399925 17.06399918
142852.20999908 485921.98399925 15.21199989
142852.09400177 485921.77700043 17.81699944
142852.65599823 485921.77499962 13.48799992
142853.49300003 485921.77000046 7.05499983
142851.95700073 485921.58399963 20.46500015
142852.17100143 485921.58300018 18.83499908
142852.29299927 485921.58200073 17.89500046
142852.85599899 485921.57799911 13.56799984
142852.17599869 485921.36000061 20.62100029
142852.28200150 485921.15200043 21.51399994
142852.92100143 485921.14299965 16.64999962
142854.04700089 485921.12400055 8.09500027
142853.12400055 485920.93199921 16.80999947
142853.54999924 485920.71400070 15.30900002
142853.76399994 485920.50799942 15.36299992
142853.88199997 485920.31399918 16.04700089
142854.10400009 485920.10400009 16.04599953
142855.67800140 485920.04999924 4.33599997
142855.91299820 485919.82699966 4.35500002
142856.12900162 485919.59900093 4.56899977
142854.58100128 485919.47699928 17.54199982
142856.31000137 485919.39800072 4.82200003
142854.49200058 485919.26899910 19.93700027
142854.92599869 485919.24799919 16.75900078
142855.25600052 485919.04400063 15.88099957
142856.69300079 485918.96800041 5.39499998
142856.88100052 485918.75399971 5.71099997
142855.26800156 485918.66099930 18.93600082
142855.39099884 485918.65500069 18.04000092
142855.35300064 485918.44700050 20.06500053
142856.00400162 485918.40500069 15.35599995
142856.32600021 485918.38500023 13.03499985
142855.28699875 485918.25399971 22.14399910
142855.46699905 485918.24200058 20.85199928
142855.77899933 485918.21999931 18.61000061
142855.56900024 485918.04599953 21.67700005
142856.10900116 485918.00699997 17.81699944
142856.43899918 485917.98500061 15.45499992
142856.38100052 485917.79000092 17.50099945
142856.61899948 485917.77199936 15.80000019
142856.54199982 485917.58900070 17.92399979
142856.81700134 485917.56699944 15.96199989
142857.13299942 485917.54400063 13.72500038
142856.56700134 485917.40200043 19.26499939
142856.91799927 485917.37299919 16.77899933
142857.02600098 485917.36499977 16.01199913
142857.36600113 485917.34000015 13.60499954
142856.63899994 485917.20999908 20.29000092
142857.15599823 485917.16600037 16.65200043
142857.42699814 485917.14200020 14.73999977
142857.42200089 485916.94599915 16.40500069
142857.31499863 485916.75399971 18.81599998
142857.38299942 485916.57200050 19.77799988
142857.81100082 485916.53300095 16.79800034
142857.65999985 485916.34700012 19.50200081
142860.21900177 485915.91699982 3.25900006
142860.31100082 485915.90699959 2.61999989
142860.41099930 485915.89799976 1.93400002
142860.62300110 485915.68099976 2.07500005
142859.89199829 485915.57600021 8.60000038
142859.90700150 485915.37199974 10.15100002
142860.74200058 485915.28299999 4.43699980
142859.75500107 485915.19699955 12.77900028
142859.99700165 485914.98600006 12.64900017
142860.43099976 485914.93500042 9.69999981
142860.09500122 485914.78299999 13.56999969
142860.19599915 485914.58899975 14.38199997
142860.32600021 485914.57400036 13.50300026
142860.47499847 485914.38000011 13.95199966
142860.69200134 485914.35200024 12.49600029
142849.01599884 485925.35099983 7.42500019
142849.41699982 485925.13199997 6.11499977
142849.70700073 485924.93400002 5.50799990
142849.92699814 485924.72200012 5.55600023
142851.35599899 485923.64900017 3.34599996
142851.61899948 485923.22999954 4.76800013
142850.89899826 485922.11899948 19.52199936
142851.11399841 485922.12000084 17.84099960
142851.20600128 485921.92499924 18.74799919
142851.62200165 485921.92700005 15.51500034
142851.25999832 485921.72100067 20.01300049
142851.69900131 485921.71999931 16.60499954
142851.95199966 485921.71999931 14.65600014
142851.90000153 485921.52199936 16.69499969
142852.06800079 485921.52099991 15.40600014
142852.19400024 485921.52000046 14.43099976
142853.49300003 485921.51300049 4.41699982
142852.13700104 485921.29700089 16.72100067
142852.73099899 485921.29100037 12.15999985
142853.53400040 485921.28400040 6.00099993
142851.85599899 485921.08799934 20.63500023
142852.10400009 485920.88299942 20.38899994
142852.45700073 485920.87800026 17.70100021
142853.33800125 485920.86199951 10.98499966
142853.85499954 485920.85300064 7.05399990
142852.23099899 485920.67300034 21.14699936
142854.89400101 485920.40900040 2.68400002
142853.07500076 485920.26099968 17.99900055
142853.46300125 485920.25000000 15.07800007
142855.03799820 485920.20499992 3.24200010
142853.60499954 485920.04599953 15.65699959
142855.22499847 485919.99399948 3.53999996
142853.76399994 485919.83099937 16.21100044
142855.47600174 485919.77000046 3.44799995
142855.70600128 485919.53899956 3.56399989
142855.90999985 485919.33699989 3.64899993
142855.08800125 485919.15600014 11.51399994
142855.13600159 485918.96599960 12.71500015
142856.36800003 485918.90399933 3.68000007
142854.64099884 485918.79299927 17.98200035
142854.83000183 485918.78300095 16.60300064
142854.97700119 485918.77499962 15.52700043
142855.29700089 485918.75699997 13.18400002
142854.52199936 485918.61199951 20.39399910
142854.82300186 485918.59600067 18.19599915
142854.58700180 485918.40200043 21.63100052
142854.70600128 485918.39299965 20.77400017
142855.21200180 485918.36400032 17.09900093
142854.81000137 485918.19099998 21.64200020
142855.07699966 485918.17300034 19.72599983
142855.38399887 485918.15399933 17.50300026
142855.15200043 485917.97800064 20.74399948
142855.72399902 485917.94000053 16.63400078
