x y z
142853.105 485918.677 14.23
142852.991 485919.143 21.467
142853.202 485919.59500000003 21.522000000000002
142853.738 485919.117 4.982
142853.489 485919.634 15.697000000000001
142853.837 485919.327 4.985
142853.605 485919.909 15.992
142853.97 485919.592 4.796
142853.731 485920.188 16.108
142854.025 485919.934 7.1160000000000005
142853.691 485920.515 20.317
142854.138 485920.132 6.6770000000000005
142854.282 485920.00800000003 2.281
142853.796 485920.716 20.088
142854.38 485920.22000000003 2.333
142854.492 485920.46 2.352
142854.415 485920.891 8.45
142854.458 485921.177 10.447000000000001
142854.555 485921.429 10.93
142854.696 485921.675 10.367
142854.52 485922.14400000003 19.014
142854.638 485922.05100000004 15.512
142855.20500000002 485921.919 1.83
142855.029 485922.365 10.213000000000001
142855.309 485922.146 1.9060000000000001
142855.42 485922.38800000004 1.971
142854.911 485923.115 20.446
142855.534 485922.63800000004 2.058
142855.01200000002 485923.36 20.766000000000002
142855.646 485922.88 2.083
142855.122 485923.57800000004 20.598
142855.23500000002 485923.494 17.330000000000002
142855.264 485923.832 20.158
142855.339 485923.777 17.955000000000002
142855.397 485924.053 19.523
142855.4 485924.341 22.372
142855.534 485924.57 21.830000000000002
142855.643 485924.799 21.836000000000002
142855.759 485925.031 21.684
142856.306 485924.966 9.13
142856.076 485925.41000000003 18.678
142856.135 485925.713 20.494
142856.62 485925.728 10.1
142856.71600000001 485925.94800000003 10.27
142856.718 485926.25 13.316
142856.69700000001 485926.614 17.514
142856.815 485926.876 17.649
142857.173 485926.647 7.538
142856.933 485927.081 17.18
142857.266 485926.869 7.8
142857.009 485927.331 18.086000000000002
142857.054 485927.303 16.821
142857.374 485927.102 7.827
142857.138 485927.587 17.891000000000002
142857.267 485927.813 17.423000000000002
142857.358 485928.03500000003 17.711000000000002
142857.44 485927.985 15.415000000000001
142857.544 485928.228 15.643
142857.62900000002 485928.51 16.693
142857.784 485928.419 12.399000000000001
142857.982 485928.30100000004 6.899
142857.902 485928.664 12.344
142858.013 485929.167 15.068
142858.088 485929.124 13.022
142858.206 485929.38800000004 13.162
142858.426 485929.867 13.281
142858.525 485930.121 13.737
142849.353 485910.012 12.265
142849.44700000001 485909.893 9.026
142849.461 485910.245 12.328
142849.526 485910.162 10.053
142849.549 485910.549 13.524000000000001
142849.658 485910.412 9.756
142849.676 485910.805 13.39
142849.727 485910.74100000004 11.61
142849.967 485910.76300000004 6.657
142849.84900000002 485911.27400000003 14.429
142849.934 485911.17100000003 11.526
142850.076 485910.995 6.654
142850.065 485911.43200000003 11.364
142850.234 485911.614 9.559000000000001
142850.293 485911.87200000003 10.918000000000001
142850.308 485912.237 14.305
142850.562 485911.93700000003 5.746
142850.388 485912.53500000003 15.641
142850.439 485912.476 13.911
142850.47 485912.832 16.912
142850.564 485913.033 16.937
142850.753 485913.205 14.563
142850.828 485913.12 12.079
142850.958 485913.384 11.954
142850.871 485913.858 18.731
142850.96 485914.097 19.228
142851.227 485913.799 10.366
142851.071 485914.369 19.618000000000002
142851.396 485914.011 8.878
142851.381 485914.435 13.538
142851.432 485914.378 11.863
142851.535 485914.267 8.472
142851.553 485914.586 11.356
142851.64800000002 485914.484 8.232
142851.703 485914.424 6.43
142851.514 485914.965 16.096
142851.764 485914.697 7.889
142851.874 485914.917 7.764
142851.945 485915.211 9.241
142852.00400000002 485915.15 7.343
142851.702 485915.787 20.42
142852.051 485915.424 9.117
142852.259 485916.26 13.147
142852.525 485915.994 4.66
142852.545 485915.973 4.016
142852.116 485916.734 21.144000000000002
142852.653 485916.197 3.95
142852.76 485916.41000000003 3.831
142852.622 485916.906 11.892
142852.491 485917.427 20.094
142852.645 485917.275 15.192
142852.595 485917.661 20.218
142852.708 485917.853 19.734
142852.795 485917.77 16.983
142852.738 485918.157 22.211000000000002
142852.988 485917.919 14.347
142852.866 485918.409 22.003
142852.986 485918.297 18.243000000000002
142853.116 485918.174 14.165000000000001
142852.97400000002 485918.63800000004 21.990000000000002
142853.106 485918.517 17.88
142853.221 485918.408 14.274000000000001
142853.84100000001 485918.846 5.289
142853.63 485919.396 15.516
142853.965 485919.098 5.179
142853.708 485919.643 16.364
142853.979 485919.403 7.987
142854.076 485919.318 5.021
142853.699 485920.00800000003 20.274
142853.833 485919.89 16.166
142854.105 485919.652 7.814
142854.246 485919.92 7.4990000000000006
142853.942 485920.48600000003 19.889
142854.508 485920.001 2.622
142854.616 485920.234 2.661
142854.733 485920.471 2.56
142854.647 485920.88800000004 8.709
142854.669 485921.18200000003 11.264
142854.75400000002 485921.422 11.881
142854.65 485921.854 18.536
142854.922 485921.637 10.422
142854.758 485922.135 19.066
142854.876 485922.042 15.576
142855.154 485922.139 10.523
142855.658 485922.38 2.045
142855.768 485922.623 2.145
142855.872 485922.85000000003 2.21
142855.44 485923.5 18.252
142855.534 485924.091 22.234
142855.622 485924.025 19.674
142855.676 485924.324 21.549
142855.786 485924.522 21.23
142855.89800000002 485924.778 21.397000000000002
142856.089 485924.988 19.400000000000002
142856.354 485924.802 11.736
142856.289 485925.174 16.949
142856.46600000001 485925.05100000004 11.857000000000001
142856.552 485924.99100000004 9.36
142856.378 485925.72000000003 20.614
142856.721 485925.841 14.406
142856.836 485926.05700000003 14.113
142856.92 485926.28500000003 14.639000000000001
142857.054 485926.197 10.795
142857.161 485926.458 11.15
142857.09100000001 485926.843 16.619
142857.275 485926.72500000003 11.407
142857.154 485927.093 17.818
142857.507 485926.869 7.884
142857.251 485927.33 18.154
142857.612 485927.103 7.981
142857.376 485927.549 17.679000000000002
142857.726 485927.332 7.855
142857.634 485927.73600000003 13.969
142857.682 485927.993 15.565
142857.761 485928.251 16.48
142857.874 485928.507 16.659
142858.051 485928.734 15.136000000000001
142858.128 485928.69 13.031
142858.164 485928.972 15.121
142858.337 485928.873 10.359
142858.268 485929.205 15.246
142858.46600000001 485929.424 13.21
142858.579 485929.67 13.276
142858.673 485929.89 13.478
142858.766 485930.11100000003 13.716000000000001
142849.525 485909.814 9.408
142849.541 485910.142 12.423
142849.634 485910.023 9.186
142849.679 485910.371 11.762
142849.737 485910.297 9.754
142849.746 485910.679 13.47
142849.801 485910.61100000003 11.578
142849.866 485910.908 13.215
142849.918 485910.843 11.396
142849.934 485911.16500000004 14.370000000000001
142850.157 485910.89 6.702
142850.141 485911.311 11.367
142850.283 485911.137 6.514
142850.191 485911.684 14.117
142850.277 485911.579 11.147
142850.39 485911.805 11.024000000000001
142850.653 485911.854 5.788
142850.538 485912.409 13.984
142850.587 485912.352 12.337
142850.681 485912.634 13.189
142850.674 485912.988 16.992
142850.846 485913.12200000003 14.608
142850.856 485913.11 14.251
142850.821 485913.504 19.085
142850.886 485913.43200000003 16.946
142850.957 485913.349 14.516
142850.93600000002 485913.75 19.121
142851.105 485913.559 13.441
142851.301 485913.337 6.9110000000000005
142851.037 485913.965 19.124
142851.213 485913.768 13.262
142851.403 485913.556 6.946
142851.13 485914.2 19.513
142851.339 485913.968 12.566
142851.377 485913.924 11.284
142851.513 485913.776 6.808
142851.422 485914.249 13.644
142851.467 485914.2 12.164
142851.571 485914.085 8.713000000000001
142851.598 485914.44 11.768
142851.699 485914.331 8.453
142851.669 485915.006 16.054000000000002
142851.994 485915.039 9.305
142852.107 485915.31 9.617
142852.315 485916.093 13.145
142852.598 485915.80700000003 4.046
142852.207 485916.60000000003 20.703
142852.726 485916.077 4.031
142852.313 485916.82 20.645
142852.56 485916.571 12.712
142852.834 485916.299 3.9450000000000003
142852.694 485916.778 11.916
142852.617 485917.194 17.881
142852.653 485917.504 20.271
142852.738 485917.42100000003 17.563
142852.814 485917.347 15.168000000000001
142852.937 485917.226 11.219
142852.785 485917.743 19.837
142852.869 485917.662 17.185
142852.84100000001 485918.022 21.491
142852.907 485917.95900000003 19.402
142852.963 485918.281 21.515
142853.039 485918.21 19.12
142853.189 485918.454 18.349
142853.314 485918.336 14.435
142853.81100000002 485918.52 5.484
142853.92500000002 485918.748 5.351
142854.04200000002 485918.994 5.315
142854.059 485919.298 8.065
142854.153 485919.215 5.164
142853.79200000002 485919.874 19.793
142854.165 485919.544 8.293000000000001
142853.894 485920.14 20.304000000000002
142854.30000000002 485919.784 7.807
142854.027 485920.39 19.968
142854.587 485919.905 2.801
142854.687 485920.125 2.8810000000000002
142854.793 485920.341 2.795
142854.718 485920.77 8.844
142854.833 485921.017 8.874
142854.815 485921.33400000003 12.551
142854.92 485921.56700000004 12.633000000000001
142854.991 485921.509 10.5
142854.839 485921.95 18.321
142855.09100000001 485921.748 10.791
142854.942 485922.235 19.022000000000002
142855.843 485922.5 2.13
142855.314 485923.283 21.644000000000002
142855.97 485922.781 2.2520000000000002
142855.404 485923.526 22.179000000000002
142855.467 485923.478 20.339000000000002
142856.077 485923.016 2.316
142855.506 485923.729 22.048000000000002
142855.654 485923.968 21.286
142855.707 485923.929 19.771
142855.76 485924.238 21.758
142855.862 485924.452 21.749
142855.982 485924.663 21.308
142856.65 485925.16000000003 11.853
142856.727 485925.108 9.652000000000001
142856.78 485925.702 14.602
142856.918 485925.962 14.257
142856.944 485926.228 16.426000000000002
142857.008 485926.185 14.592
142857.141 485926.097 10.799
142857.049 485926.46 16.524
142857.236 485926.338 11.196
142857.174 485926.728 16.551000000000002
142857.36000000002 485926.608 11.261000000000001
142857.30000000002 485926.985 16.447
142857.721 485927.00800000003 7.548
142857.807 485927.256 8.207
142857.671 485927.696 15.674
142857.728 485927.66000000003 14.054
142857.932 485927.536 8.355
142857.767 485927.934 16.021
142857.84 485927.889 13.973
142857.83000000002 485928.173 17.107
142857.934 485928.396 17.137
142858.103 485928.599 15.531
142858.422 485928.411 6.664
142858.215 485928.837 15.536
142858.294 485928.791 13.358
142858.435 485929.004 12.473
142858.433 485929.27900000004 15.318
142858.61800000002 485929.476 13.346
142858.732 485929.722 13.373000000000001
142858.92 485929.617 8.207
142849.565 485909.58900000004 12.294
142849.684 485909.842 12.296
142849.761 485909.744 9.625
142849.803 485910.06 11.93
142849.873 485909.97000000003 9.488
142849.839 485910.407 14.708
142849.92500000002 485910.299 11.733
142849.999 485910.205 9.168000000000001
142849.994 485910.639 13.714
142850.065 485910.55100000004 11.274000000000001
142850.112 485910.88300000003 13.674
142850.166 485911.179 15.499
142850.233 485911.098 13.232000000000001
142850.298 485911.017 10.986
142850.346 485911.324 13.104000000000001
142850.409 485911.24700000003 10.947000000000001
142850.537 485911.09 6.538
142850.437 485911.588 13.818
142850.457 485911.564 13.155000000000001
142850.526 485911.48 10.794
142850.651 485911.32800000004 6.508
142850.626 485911.71 10.975
142850.526 485912.166 17.819
142850.992 485911.974 5.705
142850.918 485912.469 12.382
142851.025 485912.702 12.46
142851.193 485912.506 6.791
142850.994 485913.06 16.841
142851.291 485912.717 6.827
142851.152 485913.233 15.136000000000001
142851.239 485913.13300000003 12.243
142851.39800000002 485912.952 6.92
142851.264 485913.471 15.152000000000001
142851.506 485913.197 7.072
142851.435 485913.677 13.530000000000001
142851.632 485913.455 6.978
142851.365 485914.096 19.396
142851.669 485913.757 9.284
142851.643 485914.13800000004 13.733
142851.693 485914.081 12.075000000000001
142851.783 485913.982 9.101
142851.657 485914.495 17.125
142851.763 485914.728 17.218
142851.897 485914.582 12.779
142852.708 485915.472 4.269
142852.356 485916.2 19.41
142852.827 485915.717 4.1930000000000005
142852.488 485916.46 19.197
142852.958 485915.984 4.085
142852.547 485916.761 21.024
142852.76 485916.886 17.643
142852.859 485917.126 17.964
142852.912 485917.452 20.146
142853.00400000002 485917.708 20.793
142853.189 485917.528 14.911
142853.4 485918.329 18.528
142853.516 485918.218 14.883000000000001
142853.928 485918.19 5.618
142854.04 485918.419 5.531
142854.149 485918.652 5.546
142854.17500000002 485918.981 8.357
142854.266 485918.89900000003 5.542
142854.29200000002 485919.216 8.229000000000001
142854.018 485919.767 19.832
142854.371 485919.45300000004 8.933
142854.117 485920.005 20.123
142854.492 485919.675 8.582
142854.26 485920.257 19.6
142854.376 485920.45900000003 19.146
142854.899 485920.00800000003 3.133
142855.015 485920.257 3.166
142854.622 485920.933 18.666
142854.941 485920.664 8.952
142854.914 485921.031 13.329
142855.051 485920.916 9.146
142855.036 485921.272 13.16
142855.139 485921.506 13.315
142855.069 485921.902 18.881
142855.199 485921.798 15.013
142855.332 485921.691 11.015
142855.215 485922.12200000003 17.969
142855.443 485921.941 11.16
142855.339 485922.37 17.836000000000002
142855.516 485922.231 12.554
142855.42500000002 485922.93200000003 21.7
142855.545 485923.172 21.548000000000002
142855.64 485923.43200000003 22.16
142856.307 485922.924 2.434
142855.742 485923.666 22.331
142855.825 485923.602 19.911
142856.407 485923.16500000004 2.726
142855.872 485923.878 21.691
142856.517 485923.397 2.716
142855.995 485924.135 21.64
142856.626 485923.67100000003 3.15
142856.323 485924.51300000004 18.416
142856.464 485924.719 17.458000000000002
142856.723 485924.892 13.583
142856.774 485924.857 12.123000000000001
142856.842 485925.136 13.501
142856.97 485925.047 9.804
142856.944 485925.36100000003 13.585
142857.16 485925.902 14.454
142857.246 485926.157 15.18
142857.30000000002 485926.12200000003 13.641
142857.38700000002 485926.347 14.064
142857.593 485926.525 11.406
142857.532 485926.875 16.338
142857.82 485926.99100000004 11.276
142857.853 485927.24 13.077
142857.918 485927.2 11.287
142858.024 485927.13300000003 8.281
142857.88 485927.55100000004 15.682
142858.144 485927.38800000004 8.278
142857.984 485927.803 16.029
142858.25400000002 485927.63800000004 8.447000000000001
142858.077 485928.033 16.346
142858.27 485927.917 10.979000000000001
142858.444 485928.08 8.868
142858.293 485928.466 16.086000000000002
142858.422 485928.731 16.011
142858.539 485928.97500000003 15.961
142858.614 485928.933 13.924
142858.694 485929.152 14.429
142858.919 485929.021 8.178
142858.857 485929.342 12.822000000000001
142858.964 485929.602 13.169
142859.135 485929.505 8.443
142850.141 485909.413 5.995
142850.238 485909.62700000004 6.09
142850.342 485909.841 6.0200000000000005
142850.144 485910.473 16.778
142850.365 485910.194 9.14
142850.479 485910.43200000003 9.097
142850.451 485910.847 13.955
142850.707 485910.52900000004 5.133
142850.491 485911.137 16.043
142850.802 485910.756 5.4030000000000005
142850.559 485911.43 17.578
142850.75400000002 485911.191 10.89
142850.65600000002 485911.684 18.071
142850.99300000002 485911.277 6.598
142850.77 485911.909 17.907
142850.981 485911.655 10.717
142851.102 485911.509 6.585
142850.859 485912.161 18.549
142851.015 485911.976 13.242
142851.207 485911.74700000003 6.751
142851.076 485912.286 15.105
142851.215 485912.12200000003 10.416
142851.32 485911.999 6.885
142851.336 485912.373 10.354000000000001
142851.395 485912.64 11.809000000000001
142851.508 485912.843 11.43
142851.623 485912.711 7.583
142851.6 485913.141 12.491
142851.647 485913.086 10.903
142851.752 485912.967 7.405
142851.714 485913.37700000004 12.417
142851.77300000002 485913.31 10.48
142851.87 485913.201 7.236
142851.912 485913.531 9.721
142851.886 485913.879 13.837
142852.36800000002 485914.11 5.743
142852.261 485914.596 13.034
142852.388 485914.80700000003 12.439
142852.515 485915.063 12.299
142852.871 485915.049 4.4510000000000005
142852.988 485915.29600000003 4.418
142853.089 485915.504 4.351
142852.748 485916.186 18.76
142852.963 485916.69 19.247
142853.185 485916.80700000003 15.635
142853.31 485917.064 15.559000000000001
142853.276 485917.444 20.172
142853.645 485917.745 15.242
142853.654 485918.072 18.395
142854.045 485917.701 6.089
142854.169 485917.941 5.855
142854.178 485918.288 9.214
142854.288 485918.18700000003 5.803
142853.873 485918.869 21.798000000000002
142854.283 485918.49100000004 9.019
142854.385 485918.398 5.857
142853.986 485919.125 21.973
142854.413 485918.73600000003 8.712
142854.487 485919.052 10.334
142854.609 485919.272 9.932
142854.535 485920.01300000004 19.127
142854.674 485920.256 18.615000000000002
142855.165 485919.832 3.579
142854.789 485920.48 18.41
142855.267 485920.072 3.837
142855.025 485920.602 14.552
142855.257 485920.761 11.15
142855.307 485920.718 9.6
142855.078 485921.242 19.913
142855.276 485921.076 13.955
142855.416 485920.96 9.692
142855.399 485921.29600000003 13.537
142855.463 485921.553 14.782
142855.50400000002 485921.868 17.11
142855.568 485921.81700000004 15.202
142855.627 485921.77 13.439
142855.932 485922.20300000004 11.243
142856.03 485922.412 11.24
142855.843 485922.922 20.513
142856.154 485922.68200000003 11.336
142855.911 485923.193 21.8
142856.049 485923.409 21.05
142856.775 485923.175 2.873
142856.294 485923.875 20.507
142856.378 485923.814 18.066
142856.895 485923.431 2.8930000000000002
142856.392 485924.162 21.294
142856.988 485923.726 3.892
142857.017 485923.705 3.047
142856.68 485924.271 16.173000000000002
142857.122 485923.951 3.29
142857.228 485924.196 3.495
142857.41 485924.718 4.89
142857.217 485925.141 13.42
142857.515 485924.933 4.804
142857.422 485925.276 10.338000000000001
142857.382 485925.618 14.72
142857.478 485925.896 15.483
142857.541 485925.854 13.682
142857.598 485926.11 15.076
142858.013 485926.108 6.034
142857.794 485926.555 15.374
142857.91700000002 485926.47500000003 11.869
142857.911 485926.799 15.329
142858.03100000002 485926.722 11.926
142858.168 485927.254 14.397
142858.432 485927.088 6.986
142858.303 485927.78500000003 16.908
142858.602 485927.601 8.565
142858.608 485927.887 11.346
142858.699 485927.832 8.793000000000001
142858.818 485928.066 8.618
142858.932 485928.295 8.497
142858.855 485928.683 14.109
142859.051 485928.568 8.709
142858.956 485928.909 14.225
142859.157 485928.792 8.694
142859.253 485929.003 8.763
142859.373 485929.24700000003 8.66
142859.502 485929.525 8.708
142850.437 485909.423 6.171
142850.247 485910.038 16.551000000000002
142850.347 485910.243 16.489
142850.509 485910.039 10.894
142850.76200000002 485910.124 6.293
142850.58000000002 485910.766 16.772000000000002
142850.799 485910.493 9.261000000000001
142850.886 485910.385 6.256
142850.661 485911.01900000003 17.619
142850.904 485910.718 9.286
142850.994 485910.608 6.198
142850.76200000002 485911.23600000003 17.668
142851.095 485910.827 6.248
142850.86800000002 485911.468 17.742
142851.013 485911.702 16.984
142851.07 485911.63300000003 15.035
142851.119 485911.946 17.185
142851.339 485912.391 16.97
142851.603 485912.08 8.048
142851.54 485912.514 13.848
142851.715 485912.309 7.955
142851.728 485912.69800000003 11.661
142851.772 485912.646 10.166
142851.837 485912.57300000003 8.018
142851.808 485912.963 12.632
142851.846 485912.918 11.365
142851.916 485913.228 12.988
142852.123 485913.76 13.939
142852.208 485913.664 11.124
142852.607 485914.639 12.445
142853.073 485914.864 4.6530000000000005
142852.741 485915.591 19.286
142853.199 485915.113 4.4670000000000005
142852.854 485915.815 19.13
142852.90600000002 485915.762 17.47
142853.013 485915.96 17.169
142853.128 485915.84 13.419
142853.15 485916.195 16.6
142853.176 485916.51900000003 19.351
142853.276 485916.418 16.146
142853.481 485916.901 16.638
142853.963 485917.147 8.705
142854.025 485917.088 6.747
142853.862 485917.613 15.654
142854.077 485917.406 8.867
142854.147 485917.33900000004 6.652
142853.807 485917.956 20.347
142853.953 485917.816 15.764000000000001
142854.334 485917.82300000003 7.566
142854.4 485918.14900000003 9.473
142854.127 485918.766 21.708000000000002
142854.524 485918.39900000003 9.338000000000001
142854.218 485918.968 21.8
142854.688 485918.9 10.91
142854.815 485919.169 10.901
142854.894 485920.06700000004 18.369
142855.381 485919.64400000003 3.457
142855.017 485920.327 18.367
142855.48 485919.928 4.214
142855.032 485920.626 21.082
142855.163 485920.51300000004 17.102
142855.584 485920.155 4.267
142855.155 485920.853 20.733
142855.486 485920.572 10.682
142855.381 485920.982 17.166
142855.622 485920.781 9.864
142855.51200000002 485921.545 20.073
142855.719 485922.032 20.548000000000002
142855.83000000002 485921.94200000004 17.28
142855.871 485921.909 16.046
142855.987 485922.184 16.330000000000002
142856.062 485922.126 14.116
142856.052 485922.45900000003 17.740000000000002
142856.191 485922.35000000003 13.61
142856.202 485922.677 16.726
142856.241 485923.314 22.363
142856.616 485923.028 11.32
142856.511 485923.41000000003 17.518
142856.721 485923.25200000004 11.336
142856.605 485923.631 17.731
142856.827 485923.465 11.218
142856.699 485923.871 18.159
142856.935 485923.697 11.235
142857.213 485923.49100000004 3.088
142856.809 485924.12 18.318
142857.33000000002 485923.739 3.08
142857.43 485923.989 3.486
142857.527 485924.22000000003 3.732
142857.628 485924.45900000003 3.997
142857.726 485924.71 4.424
142857.62 485925.092 10.628
142857.799 485924.967 5.489
142857.718 485925.331 10.958
142857.892 485925.211 5.944
142857.712 485925.669 14.551
142857.833 485925.587 11.073
142857.84100000001 485925.886 13.979000000000001
142858.286 485925.893 4.384
142858.331 485926.148 6.013
142858.388 485926.11100000003 4.383
142858.113 485926.623 15.609
142858.513 485926.363 4.269
142858.232 485926.856 15.404
142858.345 485926.784 12.213000000000001
142858.372 485927.086 14.726
142858.67500000002 485926.893 6.182
142858.829 485927.07800000004 4.723
142858.794 485927.392 8.704
142858.717 485927.78500000003 14.384
142858.942 485927.96400000004 11.354000000000001
142859.021 485927.917 9.143
142859.119 485928.155 9.46
142859.16700000002 485928.461 11.55
142859.24300000002 485928.416 9.44
142859.376 485928.336 5.734
142859.185 485928.754 14.136000000000001
142859.27300000002 485928.70300000004 11.736
142859.386 485928.95 11.801
142859.476 485928.898 9.332
142859.59 485929.108 8.995000000000001
142850.42500000002 485910.007 16.263
142850.584 485909.805 10.75
142850.51200000002 485910.229 16.639
142850.623 485910.479 16.784
142850.74 485910.711 16.632
142850.949 485910.451 9.447000000000001
142850.83000000002 485910.976 17.395
142851.065 485910.685 9.316
142851.154 485910.575 6.255
142850.916 485911.246 18.31
142851.18600000002 485910.913 9.029
142851.028 485911.483 18.286
142851.141 485911.765 18.723
142851.2 485911.694 16.693
142851.392 485911.848 14.118
142851.559 485911.647 8.436
142851.499 485912.04600000003 13.822000000000001
142851.664 485911.85000000003 8.254
142851.614 485912.294 13.871
142851.784 485912.092 8.121
142851.604 485912.685 18.092
142851.777 485912.484 12.259
142851.896 485912.343 8.241
142851.896 485912.702 11.924
142851.95 485912.639 10.119
142851.972 485912.95 12.81
142851.979 485912.941 12.576
142851.935 485913.368 17.918
142852.08000000002 485913.204 13.052
142852.395 485913.965 14.016
142852.777 485914.63 12.540000000000001
142853.114 485914.586 4.7780000000000005
142853.234 485914.829 4.668
142852.901 485915.548 19.261
142853.083 485915.734 17.211000000000002
142853.194 485915.961 17.12
142853.219 485916.254 19.585
142853.623 485915.843 6.603
142853.553 485916.684 16.726
142853.708 485916.856 15.135
142853.967 485916.60000000003 6.869
142854.081 485916.838 6.828
142853.842 485917.44200000004 18.223
142854.142 485917.15 8.696
142854.203 485917.091 6.776
142854.046 485917.623 15.652000000000001
142854.184 485917.791 14.367
142854.295 485918.009 14.184000000000001
142854.435 485917.878 9.808
142854.564 485918.13300000003 9.6
142854.662 485918.042 6.55
142854.269 485918.772 22.580000000000002
142854.632 485918.435 11.228
142854.709 485918.663 11.897
142854.839 485918.897 11.477
142854.964 485919.134 11.166
142855.434 485919.385 3.516
142855.067 485920.045 18.284
142855.528 485919.643 4.1290000000000004
142855.647 485919.92 4.364
142855.187 485920.67100000003 22.079
142855.76200000002 485920.18 4.543
142855.285 485920.898 22.264
142855.48500000002 485920.727 16.192
142855.613 485920.974 15.961
142855.81 485920.808 9.934000000000001
142855.609 485921.349 19.839000000000002
142856.007 485921.34 11.129
142855.78 485921.804 20.804000000000002
142855.937 485921.67600000004 16.112000000000002
142855.896 485922.027 20.556
142856.039 485921.911 16.284
142856.142 485922.166 16.668
142856.221 485922.104 14.32
142856.217 485922.422 17.671
142856.346 485922.321 13.834
142856.971 485923.39400000003 11.233
142856.842 485923.821 18.419
142856.971 485923.72500000003 14.625
142857.084 485923.641 11.298
142856.968 485924.088 18.417
142857.097 485923.993 14.635
142857.211 485923.91000000003 11.293000000000001
142857.489 485923.705 3.146
142857.212 485924.229 14.551
142857.678 485924.172 3.829
142857.72 485924.443 5.679
142857.771 485924.407 4.206
142857.861 485924.693 5.181
142857.886 485924.675 4.466
142857.939 485924.957 6.214
142857.881 485925.305 11.035
142857.88700000002 485925.596 13.885
142857.992 485925.525 10.871
142858.211 485925.375 4.566
142858.106 485925.76300000004 10.815
142858.161 485925.727 9.279
142858.285 485925.642 5.7010000000000005
142858.328 485925.613 4.476
142858.143 485926.081 13.289
142858.454 485925.873 4.3870000000000005
142858.39800000002 485926.547 12.51
142858.685 485926.36 4.359
142858.42500000002 485926.869 15.244
142858.52 485926.808 12.535
142858.608 485927.052 13.119
142858.95 485927.745 12.809000000000001
142859.18600000002 485927.89900000003 9.266
142859.285 485928.137 9.540000000000001
142859.45500000002 485928.695 11.581
142859.642 485928.88 9.42
142850.498 485909.39900000003 14.721
142850.608 485909.663 15.016
142850.69700000001 485909.978 16.311
142850.796 485910.20900000003 16.541
142850.914 485910.414 16.07
142851.106 485910.174 9.472
142851.229 485910.436 9.493
142851.193 485910.87200000003 14.733
142851.351 485910.674 9.271
142851.2 485911.191 17.842
142851.327 485911.03500000003 13.479000000000001
142851.457 485910.875 9.037
142851.304 485911.403 17.751
142851.566 485911.082 8.787
142851.415 485911.688 18.267
142851.467 485911.625 16.467
142851.558 485911.515 13.376
142851.704 485911.33900000004 8.423
142851.501 485911.979 19.368000000000002
142851.684 485911.762 13.17
142851.823 485911.594 8.454
142851.80000000002 485911.984 12.93
142851.91 485912.201 12.752
142851.834 485912.67 19.223
142852.036 485912.435 12.415000000000001
142851.948 485912.928 19.399
142852.002 485912.86600000004 17.594
142852.147 485912.69800000003 12.694
142852.106 485913.079 17.527
142852.194 485913.32 18.071
142852.653 485913.907 14.091000000000001
142853.277 485914.34500000003 5.042
142853.389 485914.575 4.9670000000000005
142853.258 485915.094 13.13
142853.541 485915.15400000004 7.5680000000000005
142853.301 485915.794 19.372
142853.378 485915.715 16.88
142853.597 485915.818 13.173
142853.776 485915.635 7.413
142853.704 485916.05 13.221
142853.888 485915.864 7.327
142853.657 485916.451 18.369
142853.817 485916.288 13.22
142854.002 485916.103 7.303
142853.784 485916.695 18.102
142853.875 485916.604 15.200000000000001
142854.126 485916.354 7.1850000000000005
142853.884 485916.944 18.484
142853.986 485916.843 15.228
142854.24300000002 485916.58900000004 7.055
142853.96600000001 485917.188 19.192
142854.001 485917.533 21.971
142854.11800000002 485917.42 18.276
142854.1 485917.782 22.38
142854.19700000001 485918.01 22.609
142854.53100000002 485917.69 12.054
142854.59 485917.634 10.207
142854.298 485918.235 22.711000000000002
142854.645 485917.906 11.795
142854.701 485917.853 10.037
142854.804 485917.757 6.816
142854.411 485918.512 23.098
142854.597 485918.338 17.26
142854.6 485918.69800000003 20.876
142854.89800000002 485918.742 14.871
142854.975 485918.672 12.505
142854.834 485919.161 20.549
142855.076 485918.94200000004 13.089
142854.957 485919.431 20.654
142855.628 485919.191 3.585
142855.722 485919.395 3.641
142855.807 485919.64900000003 4.406
142855.36000000002 485920.395 21.768
142855.918 485919.912 4.699
142855.45 485920.629 22.207
142855.516 485920.572 20.194
142855.613 485920.488 17.23
142856.021 485920.14 4.779
142855.56100000002 485920.824 21.771
142855.717 485920.69 17.025
142855.764 485921.004 19.227
142856.057 485920.757 10.329
142856.14 485921.022 11.266
142856.239 485921.261 11.549
142856.227 485922.245 21.861
142856.42 485922.42600000004 19.539
142856.583 485922.298 14.706
142856.529 485922.635 19.321
142856.676 485922.521 14.982000000000001
142856.596 485922.887 20.439
142856.785 485922.74100000004 14.863
142856.714 485923.119 20.258
142856.897 485922.979 14.849
142857.025 485923.235 14.714
142857.107 485923.455 15.177
142857.23500000002 485923.691 14.822000000000001
142857.36000000002 485923.599 11.146
142857.741 485923.629 3.18
142857.854 485923.88 3.2880000000000003
142857.689 485924.311 11.283
142858.039 485924.39 4.507
142858.127 485924.677 5.541
142858.003 485925.102 12.589
142858.259 485924.924 5.183
142858.049 485925.346 14.077
142858.14800000002 485925.27900000004 11.235
142858.356 485925.135 5.234
142858.328 485925.49100000004 9.509
142858.468 485925.395 5.481
142858.582 485925.634 5.441
142858.695 485925.874 5.434
142858.611 485926.215 10.755
142858.796 485926.092 5.489
142858.72 485926.446 10.77
142858.902 485926.327 5.585
142858.777 485926.76900000003 12.832
142859.032 485926.604 5.597
142858.895 485927.022 12.859
142859.145 485926.863 5.807
142858.954 485927.256 13.969
142859.1 485927.454 12.829
142859.23500000002 485927.707 12.475
142859.464 485927.565 6.058
142859.45500000002 485927.871 9.394
142859.57200000001 485927.799 6.112
142859.546 485928.104 9.822000000000001
142859.679 485928.022 6.063
142859.661 485928.351 9.84
142859.786 485928.276 6.365
142859.771 485928.591 9.921
142859.89800000002 485928.841 9.716000000000001
142860.01 485929.069 9.638
142860.051 485929.04600000003 8.515
142850.819 485909.642 17.053
142851.014 485909.797 14.394
142851.15 485909.62200000003 9.668000000000001
142851.282 485909.452 5.073
142851.127 485910.034 14.372
142851.266 485909.857 9.553
142851.24300000002 485910.243 13.994
142851.293 485910.181 12.277000000000001
142851.366 485910.088 9.757
142851.264 485910.642 17.616
142851.33000000002 485910.561 15.362
142851.445 485910.806 15.363
142851.632 485910.574 8.963000000000001
142851.563 485910.99100000004 14.722
142851.678 485911.226 14.635
142851.65600000002 485911.626 19.2
142851.714 485911.555 17.215
142851.795 485911.458 14.457
142851.774 485911.867 19.114
142851.944 485911.664 13.333
142851.866 485912.11600000004 19.645
142851.999 485911.958 15.145
142852.06100000002 485911.885 13.044
142852.102 485912.173 15.109
142852.1 485912.566 19.182000000000002
142852.215 485912.84500000003 19.533
142852.639 485913.05700000003 12.518
142853.064 485913.708 9.935
142853.176 485913.936 9.854000000000001
142853.293 485914.194 9.955
142853.435 485914.04000000004 5.301
142853.57 485914.313 5.157
142853.638 485914.533 5.953
142853.404 485915.13 17.136
142853.654 485914.863 8.965
142853.69700000001 485914.818 7.564
142853.821 485915.07800000004 7.53
142853.765 485915.505 13.132
142853.931 485915.332 7.7330000000000005
142853.876 485915.721 12.93
142854.043 485915.55100000004 7.574
142853.889 485916.031 15.837
142853.98 485915.936 12.871
142853.953 485916.35000000003 17.704
142854.101 485916.19800000003 12.921000000000001
142854.064 485916.588 17.724
142854.218 485916.43200000003 12.783
142854.337 485916.675 12.679
142854.253 485917.097 18.817
142854.451 485916.9 12.504
142854.301 485917.439 21.296
142854.439 485917.306 16.929000000000002
142854.529 485917.216 14.08
142854.586 485917.16000000003 12.242
142854.423 485917.68700000003 21.168
142854.748 485917.373 10.897
142854.537 485917.911 20.998
142854.659 485917.795 17.164
142854.977 485917.49 7.140000000000001
142854.6 485918.193 22.512
142854.633 485918.162 21.473
142854.652 485918.14400000003 20.898
142855.096 485917.72500000003 6.9590000000000005
142854.747 485918.408 21.533
142854.797 485918.36 19.948
142854.865 485918.297 17.805
142854.965 485918.545 18.192
142855.041 485918.473 15.814
142855.065 485918.762 18.249
142855.151 485918.681 15.573
142855.229 485918.61 13.15
142855.325 485918.82 13.204
142855.427 485919.07800000004 13.613
142855.537 485919.35000000003 14.029
142855.875 485919.049 3.594
142855.946 485919.295 4.575
142855.978 485919.267 3.605
142855.506 485919.978 21.113
142855.601 485919.893 18.184
142856.045 485919.505 4.557
142856.147 485919.754 4.894
142856.258 485920.007 5.088
142855.796 485920.74700000003 22.687
142855.932 485920.63 18.541
142856.087 485920.83 17.247
142856.306 485920.647 10.601
142856.081 485921.157 20.708000000000002
142856.419 485920.874 10.456
142856.478 485921.158 12.108
142856.357 485921.884 22.129
142856.496 485922.088 21.218
142856.567 485922.03 19.097
142856.61800000002 485922.357 21.321
142856.69 485922.298 19.165
142856.751 485922.251 17.39
142856.893 485922.139 13.143
142856.777 485922.53500000003 19.701
142856.85 485922.478 17.548000000000002
142856.933 485922.414 15.097
142856.823 485922.794 21.344
142857.025 485922.637 15.384
142857.09100000001 485923.283 20.534
142857.232 485923.17600000004 16.401
142857.508 485923.602 14.757
142858.13700000002 485923.82300000003 3.378
142858.199 485924.069 4.542
142858.24 485924.041 3.372
142858.301 485924.287 4.5600000000000005
142858.411 485924.52 4.559
142858.51 485924.809 5.377
142858.314 485925.26300000004 14.273
142858.42500000002 485925.492 14.207
142858.505 485925.438 11.91
142858.611 485925.68 12.076
142858.711 485925.613 9.223
142858.897 485925.813 7.2330000000000005
142859.045 485926.018 6.119
142858.983 485926.343 10.801
142859.014 485926.635 13.111
142859.136 485926.896 13.131
142859.227 485926.838 10.583
142859.383 485926.738 6.16
142859.223 485927.131 13.646
142859.365 485927.341 12.724
142859.489 485927.60000000003 12.679
142859.728 485927.452 5.977
142859.727 485927.773 9.296
142859.847 485927.69800000003 5.909
142859.832 485928.016 9.501
142859.965 485927.935 5.767
142860.055 485928.188 6.426
142860.171 485928.446 6.555
142860.265 485928.705 7.159
142850.941 485909.36600000004 16.891000000000002
142851.058 485909.608 16.832
142851.141 485909.5 13.898
142851.259 485909.348 9.801
142851.404 485909.159 4.73
142851.153 485909.88 17.542
142851.24 485909.768 14.501
142851.38 485909.588 9.633000000000001
142851.517 485909.411 4.864
142851.353 485909.992 14.343
142851.487 485909.822 9.719
142851.467 485910.559 17.671
142851.532 485910.478 15.429
142851.671 485910.718 14.870000000000001
142851.69 485911.119 18.589
142851.895 485910.868 11.566
142851.996 485910.74 8.06
142851.816 485911.293 17.632
142851.89 485911.202 15.082
142851.997 485911.072 11.441
142852.096 485911.33900000004 12.02
142852.182 485911.233 9.09
142852.002 485911.847 19.251
142852.106 485911.722 15.713000000000001
142852.116 485912.11600000004 19.542
142852.213 485912.325 19.581
142852.361 485912.53 18.452
142852.371 485912.51900000003 18.141000000000002
142852.482 485912.815 18.763
142852.604 485913.02900000004 18.296
142852.938 485913.34500000003 14.255
142853.07200000001 485913.19200000004 9.805
142853.198 485913.451 9.729000000000001
142853.305 485913.684 9.773
142853.426 485913.55100000004 5.779
142853.238 485914.123 15.749
142853.426 485913.91500000004 9.518
142853.543 485913.786 5.654
142853.524 485914.146 9.751
142853.663 485913.996 5.213
142853.677 485914.38800000004 8.917
142853.785 485914.609 8.833
142853.858 485914.878 9.986
142853.909 485914.825 8.346
142854.034 485915.074 8.177
142854.003 485915.484 13.067
142854.145 485915.337 8.472
142854.153 485915.329 8.207
142854.47400000002 485916.45900000003 12.794
142854.626 485916.309 7.981
142854.73500000002 485916.53 7.893
142854.639 485917.268 17.502
142854.836 485917.074 11.255
142854.64 485917.613 21.027
142854.954 485917.308 11.071
142855.07200000001 485917.194 7.355
142854.737 485917.885 21.708000000000002
142855.194 485917.447 7.292
142854.867 485918.071 20.782
142855.15 485918.468 18.702
142855.427 485918.552 13.554
142855.48 485918.503 11.893
142855.639 485919.04000000004 13.950000000000001
142855.59100000001 485919.422 18.896
142855.74 485919.287 14.283
142856.086 485918.979 3.612
142855.704 485919.647 18.731
142856.15600000002 485919.24700000003 4.83
142855.696 485919.94800000003 21.989
142856.26200000002 485919.45 4.599
142855.793 485920.208 22.553
142856.36000000002 485919.71400000004 5.1770000000000005
142855.90600000002 485920.44200000004 22.48
142855.979 485920.379 20.251
142856.46600000001 485919.96 5.389
142856.04 485920.69 22.111
142856.112 485920.629 19.933
142856.51200000002 485920.591 10.852
142856.621 485920.81200000003 10.771
142856.765 485921.055 10.112
142856.494 485921.64 21.993000000000002
142856.61800000002 485921.846 21.405
142856.711 485922.107 22.05
142856.856 485921.989 17.708000000000002
142857.009 485921.868 13.17
142856.821 485922.34500000003 22.09
142857.117 485922.11 13.312000000000001
142856.997 485922.561 20.494
142857.085 485922.49100000004 17.91
142857.09 485922.771 20.628
142857.263 485922.637 15.537
142857.364 485922.559 12.528
142857.176 485923.009 21.182000000000002
142857.354 485922.871 15.939
142857.467 485922.784 12.594
142857.461 485923.132 16.292
142857.88 485924.123 17.335
142858.358 485923.775 3.398
142858.41700000002 485924.044 4.862
142858.467 485924.00800000003 3.424
142858.305 485924.445 11.393
142858.538 485924.278 4.631
142858.588 485924.862 9.515
142858.54 485925.232 14.363
142858.62 485925.177 12.058
142858.834 485925.028 5.892
142858.718 485925.385 12.055
142858.823 485925.63800000004 12.358
142859.033 485925.496 6.351
142858.927 485925.922 13.015
142859.14800000002 485925.773 6.699
142859.276 485925.993 6.164
142859.223 485926.32300000003 10.699
142859.339 485926.24700000003 7.405
142859.452 485926.506 7.614
142859.366 485926.9 13.487
142859.465 485927.137 13.758000000000001
142859.729 485927.599 12.769
142859.981 485927.443 5.694
142859.839 485927.83900000004 12.838000000000001
142859.94700000001 485928.07 12.861
142860.212 485927.91000000003 5.468
142860.31 485928.139 5.682
142860.412 485928.405 6.199
142860.536 485928.657 6.095
142851.089 485909.402 16.85
142851.161 485909.309 14.336
142851.285 485909.148 9.998
142851.208 485909.643 16.727
142851.278 485909.552 14.269
142851.407 485909.386 9.78
142851.31100000002 485909.929 17.446
142851.475 485910.123 15.849
142851.664 485909.88300000003 9.31
142851.575 485910.33 15.802
142851.91700000002 485910.29000000004 7.9750000000000005
142851.737 485910.94200000004 18.577
142851.929 485910.70300000004 11.936
142852.043 485910.56 7.997
142851.932 485911.064 15.566
142852.047 485910.923 11.618
142851.969 485911.348 17.684
142852.045 485911.255 15.067
142852.131 485911.15 12.126
142852.221 485911.039 9.051
142852.05000000002 485911.645 18.972
142852.166 485911.924 19.304000000000002
142852.299 485911.765 14.776
142852.26200000002 485912.157 19.612000000000002
142852.312 485912.098 17.929000000000002
142852.381 485912.374 19.242
142852.479 485912.604 19.489
142852.614 485912.848 19.038
142852.819 485912.61 12.136000000000001
142852.929 485912.84 12.094
142853.109 485913.001 9.841000000000001
142853.093 485913.39900000003 14.266
142853.33000000002 485913.129 6.328
142853.35 485913.518 9.902000000000001
142853.464 485913.391 6.105
142853.285 485913.967 15.93
142853.473 485913.757 9.684000000000001
142853.585 485913.63300000003 5.953
142853.402 485914.189 15.672
142853.587 485913.983 9.524000000000001
142853.714 485913.84500000003 5.362
142853.711 485914.21 9.156
142853.75400000002 485914.163 7.727
142853.835 485914.45900000003 8.994
142853.873 485914.418 7.758
142854.066 485914.875 8.24
142854.276 485915.381 8.848
142854.126 485915.90400000004 17.495
142854.214 485916.12200000003 17.81
142854.201 485916.463 21.605
142854.339 485916.685 20.884
142854.577 485916.444 13.221
142854.745 485916.277 7.87
142854.699 485916.661 12.783
142854.84900000002 485916.51300000004 8.026
142854.84100000001 485916.859 11.729000000000001
142854.95500000002 485916.748 8.120000000000001
142854.976 485917.109 11.353
142854.76200000002 485917.655 21.636
142855.208 485917.223 7.497
142854.995 485917.775 17.783
142855.323 485917.46 7.4270000000000005
142854.929 485918.137 22.935
142854.989 485918.081 21.06
142855.168 485918.265 19.06
142855.286 485918.506 18.948
142855.453 485918.35000000003 13.743
142855.38 485918.772 19.643
142855.567 485918.597 13.779
142855.622 485918.54600000003 12.057
142855.402 485919.058 22.105
142856.107 485918.746 3.557
142855.875 485919.316 14.453000000000001
142856.178 485919.045 5.059
142856.225 485919.003 3.625
142855.748 485919.788 22.053
142855.856 485919.693 18.734
142855.986 485919.576 14.724
142856.304 485919.295 4.906
142855.86000000002 485920.014 21.949
142855.96600000001 485920.266 22.222
142856.509 485919.793 5.545
142856.081 485920.509 22.206
142856.611 485920.053 5.995
142856.195 485920.765 22.353
142856.351 485920.63 17.575
142856.496 485920.809 16.266000000000002
142856.668 485920.66500000004 11.058
142856.76 485920.89900000003 11.46
142856.915 485921.112 10.238
142856.651 485921.68200000003 21.830000000000002
142856.738 485921.928 22.466
142856.854 485922.161 22.328
142857.155 485921.918 13.31
142857.107 485922.303 18.274
142857.21 485922.222 15.226
142857.267 485922.177 13.541
142857.132 485922.59 20.674
142857.204 485922.531 18.516000000000002
142857.219 485922.846 21.406
142857.41 485922.696 15.739
142857.32200000001 485923.068 21.44
142857.506 485922.92600000004 16.016000000000002
142857.624 485922.836 12.524000000000001
142857.611 485923.169 16.221
142857.825 485923.381 13.738
142857.927 485923.897 16.825
142858.04200000002 485924.162 17.038
142858.453 485923.86100000003 4.994
142858.568 485924.09 4.843
142858.614 485924.05700000003 3.5
142858.46 485924.488 11.264
142858.689 485924.324 4.611
142858.908 485924.859 5.34
142858.778 485925.24700000003 12.147
142858.891 485925.476 12.025
142858.948 485925.436 10.381
142858.992 485925.731 12.442
142859.195 485925.594 6.606
142859.067 485926.004 13.623000000000001
142859.299 485925.85000000003 6.984
142859.17 485926.239 13.788
142859.404 485926.08400000003 7.104
142859.506 485926.331 7.423
142859.412 485926.704 13.278
142859.517 485926.636 10.32
142859.517 485926.966 13.683
142859.624 485927.217 13.938
142859.722 485927.435 14.040000000000001
142860.025 485927.245 5.486
142859.836 485927.672 13.993
142859.882 485927.643 12.694
142859.994 485927.892 12.817
142860.457 485928.245 6.3740000000000006
142860.587 485928.484 6.001
142851.36000000002 485908.788 10.111
142851.299 485909.266 16.335
142851.393 485909.516 16.844
142851.511 485909.362 12.692
142851.49 485909.773 17.378
142851.636 485909.58400000003 12.265
142851.596 485910.02900000004 17.699
142851.759 485909.822 12.029
142851.837 485909.721 9.308
142851.756 485910.218 16.146
142851.876 485910.066 11.998000000000001
142851.795 485910.525 18.483
142851.979 485910.293 12.08
142852.09900000002 485910.14 7.922000000000001
142851.904 485910.778 18.706
142852.095 485910.539 12.08
142852.095 485910.938 16.154
142852.228 485911.129 15.236
142852.305 485911.03500000003 12.61
142852.248 485911.456 18.17
142852.363 485911.689 18.068
142852.549 485911.46400000004 11.692
142852.617 485911.381 9.375
142852.489 485911.956 18.051000000000002
142852.543 485911.891 16.189
142852.6 485911.82300000003 14.254
142852.759 485911.631 8.83
142852.59900000002 485912.196 18.13
142852.65600000002 485912.128 16.18
142852.72 485912.052 14.015
142852.677 485912.46 19.124
142853.036 485912.037 6.971
142853.162 485912.29600000003 6.888
142853.12900000002 485912.74 12.168000000000001
142853.289 485912.554 6.776
142853.31100000002 485912.898 9.832
142853.41 485912.78500000003 6.5120000000000005
142853.416 485913.11100000003 9.728
142853.515 485912.999 6.4350000000000005
142853.627 485913.227 6.316
142853.75 485913.479 6.231
142853.563 485914.00800000003 15.749
142853.748 485913.8 9.575000000000001
142853.80000000002 485913.743 7.863
142853.677 485914.221 15.455
142853.854 485914.023 9.548
142853.90600000002 485913.967 7.861
142853.802 485914.467 15.264000000000001
142854.022 485914.22500000003 7.9590000000000005
142854.135 485914.476 8.095
142854.226 485914.715 8.546
142854.268 485915.342 14.075000000000001
142854.385 485915.609 14.261000000000001
142854.497 485915.859 14.424
142854.592 485916.06 14.42
142854.49300000002 485916.512 21.203
142854.726 485916.273 13.667
142854.617 485916.73600000003 20.799
142854.831 485916.52 13.942
142854.748 485916.97500000003 20.406
142855.005 485916.718 12.149000000000001
142854.836 485917.191 20.696
142855.11000000002 485916.92 11.943
142854.905 485917.50200000004 22.395
142855.01200000002 485917.39900000003 19.008
142855.36800000002 485917.05 7.678
142855.141 485917.618 18.432000000000002
142855.484 485917.287 7.5760000000000005
142855.12 485917.972 22.529
142855.246 485917.852 18.554000000000002
142855.23 485918.188 22.356
142855.334 485918.45300000004 22.82
142855.609 485918.194 14.171000000000001
142855.562 485918.624 19.602
142855.733 485918.463 14.242
142855.797 485918.40400000004 12.224
142855.574 485918.952 22.712
142856.289 485918.607 3.601
142856.357 485918.909 5.229
142856.408 485918.863 3.637
142856.477 485919.153 5.11
142856.036 485919.862 22
142856.252 485919.669 15.309000000000001
142856.166 485920.04000000004 20.976
142856.342 485919.885 15.577
142856.461 485920.13800000004 15.589
142856.77 485919.87 6.086
142856.393 485920.563 21.418
142856.50400000002 485920.467 18.02
142856.878 485920.146 6.58
142856.506 485920.798 21.345
142856.616 485920.704 18.002
142856.834 485920.51900000003 11.399000000000001
142856.983 485920.392 6.814
142856.766 485920.87700000004 16.516000000000002
142856.93600000002 485920.735 11.372
142856.901 485921.076 15.649000000000001
142856.978 485921.012 13.32
142856.815 485921.539 22.239
142856.875 485921.49 20.421
142857.212 485921.211 10.239
142856.918 485921.75200000004 22.181
142857.036 485921.952 21.661
142857.151 485922.196 21.67
142857.362 485922.362 18.791
142857.532 485922.229 13.73
142857.459 485922.621 19.331
142857.645 485922.476 13.817
142857.614 485922.825 18.066
142857.691 485922.766 15.794
142857.791 485922.688 12.801
142857.783 485922.999 16.174
142857.895 485922.913 12.862
142857.777 485923.36600000004 20.058
142857.901 485923.272 16.416
142858.018 485923.516 16.368000000000002
142858.125 485923.74700000003 16.413
142858.236 485923.965 16.227
142858.742 485923.956 5.109
142858.48500000002 485924.473 16.016000000000002
142858.911 485924.166 3.59
142859.038 485924.667 5.953
142859.158 485924.941 6.165
142859.056 485925.329 12.365
142859.256 485925.191 6.591
142859.343 485925.419 7.048
142859.269 485925.814 12.717
142859.372 485926.058 12.962
142859.574 485925.923 7.187
142859.666 485926.178 7.8260000000000005
142859.774 485926.39 7.640000000000001
142859.689 485926.776 13.443
142859.888 485926.648 7.816
142859.779 485927.06700000004 14.467
142860.006 485926.923 8.071
142859.89800000002 485927.3 14.268
142860.11000000002 485927.168 8.298
142860.016 485927.525 14.022
142860.218 485927.401 8.36
142860.446 485927.944 8.967
142851.416 485908.832 16.789
142851.518 485908.696 13.174
142851.54 485909.065 16.482
142851.631 485908.945 13.269
142851.62900000002 485909.321 17.174
142851.719 485909.563 17.69
142851.84900000002 485909.395 13.141
142851.834 485909.821 17.835
142851.976 485909.639 12.893
142851.944 485910.074 18.066
142852.045 485910.313 18.304000000000002
142852.219 485910.093 12.269
142852.291 485910 9.759
142852.213 485910.478 16.324
142852.411 485910.23 9.51
142852.26 485910.833 18.969
142852.535 485910.489 9.477
142852.381 485911.094 19.008
142852.511 485911.297 18.266000000000002
142852.733 485911.401 14.501
142852.888 485911.212 9.221
142852.798 485911.707 16.198
