142834.02099991 485940.27600098 15.54199982
142833.85499954 485939.86899948 20.19499969
142834.07799911 485939.97900009 17.56699944
142834.28799820 485940.08399963 15.05700016
142834.03099823 485939.64400101 20.68099976
142834.18700027 485939.72100067 18.84300041
142834.41999817 485939.50899887 18.79599953
142834.69100189 485939.63800049 15.61999989
142834.91799927 485939.43500137 15.53899956
142834.99399948 485939.47200012 14.65799999
142835.10100174 485939.52199936 13.40299988
142835.06900024 485939.21500015 16.17499924
142835.20299911 485939.27700043 14.63000011
142835.36100006 485939.04399872 15.33300018
142836.37699890 485939.18299866 6.28999996
142836.54100037 485938.91600037 7.22599983
142836.68500137 485938.98099899 5.57900000
142836.75000000 485938.71900177 7.24300003
142837.04800034 485938.84600067 3.88499999
142836.29700089 485938.19400024 15.07800007
142836.67699814 485938.35300064 10.83399963
142836.27500153 485937.90299988 17.67099953
142836.47900009 485937.69400024 17.81900024
142836.77099991 485937.53300095 16.85799980
142836.61299896 485937.15499878 21.21500015
142836.73500061 485937.20299911 19.86499977
142836.84400177 485936.94699860 21.15500069
142836.97999954 485936.70999908 22.05599976
142837.39899826 485936.86700058 17.50600052
142837.59000015 485936.64400101 17.86700058
142838.27500153 485936.60499954 12.86600018
142838.36999893 485936.63800049 11.85599995
142838.47900009 485936.67699814 10.68400002
142838.78099823 485936.78499985 7.46600008
142838.56000137 485936.43399811 12.05700016
142838.67800140 485936.47600174 10.80000019
142838.52099991 485936.13499832 14.83800030
142838.76800156 485936.21900177 12.21800041
142838.89199829 485936.26100159 10.91399956
142839.01699829 485936.01499939 11.97700024
142839.10599899 485936.04399872 11.04599953
142839.32500076 485935.80899811 11.29199982
142839.35100174 485935.55099869 13.21599960
142839.59099960 485935.32899857 13.19099998
142840.08100128 485935.21900177 10.31099987
142840.11199951 485934.94900131 12.28899956
142840.36899948 485935.02700043 9.66699982
142839.90000153 485934.62500000 16.62100029
142840.20600128 485934.71500015 13.48700047
142840.17699814 485934.41199875 16.21899986
142840.25000000 485934.43299866 15.48600006
142840.64799881 485934.54800034 11.46000004
142840.50400162 485934.22800064 15.20699978
142840.68700027 485934.27999878 13.36200047
142840.79999924 485934.31100082 12.22700024
142840.50899887 485933.96200180 17.35700035
142840.64599991 485934.00099945 15.98799992
142840.90100098 485933.79499817 15.68299961
142841.00999832 485933.82500076 14.61200047
142841.19499969 485933.87500000 12.76900005
142841.34799957 485933.91600037 11.24899960
142841.40800095 485933.93099976 10.64900017
142840.86700058 485933.52500153 18.18899918
142841.03900146 485933.57099915 16.48299980
142841.07799911 485933.33100128 18.15500069
142841.50099945 485933.43899918 14.00300026
142841.68399811 485933.48600006 12.18000031
142841.35400009 485933.13600159 17.63599968
142841.57199860 485933.18999863 15.49600029
142841.69900131 485933.22100067 14.26399994
142842.12400055 485933.05400085 12.33500004
142831.37899971 485942.71599960 12.16600037
142831.61700058 485942.51800156 11.95699978
142831.80500031 485942.30699921 12.23900032
142831.89800072 485942.01800156 13.91399956
142832.11500168 485941.79899979 14.04899979
142832.18600082 485941.84099960 13.13899994
142832.38199997 485941.59600067 13.64200020
142832.70700073 485941.46500015 12.20600033
142833.05500031 485941.66299820 7.87300014
142832.76499939 485940.82199860 17.06100082
142832.94800186 485940.59600067 17.51099968
142833.21400070 485940.43199921 16.80100060
142833.54299927 485940.60699844 12.80399990
142833.31700134 485940.14199829 18.39500046
142833.48799896 485940.22900009 16.34600067
142833.75400162 485940.04199982 15.83800030
142834.28400040 485939.99300003 12.13000011
142834.52999878 485939.78499985 11.93900013
142834.09799957 485939.25799942 19.64100075
142834.52700043 485939.46400070 14.60799980
142834.59099960 485939.49499893 13.86900043
142834.41299820 485939.11399841 18.37700081
142834.53300095 485939.17100143 16.97699928
142834.74700165 485939.27199936 14.50300026
142834.87200165 485939.33000183 13.04300022
142834.67699814 485938.93399811 17.80599976
142834.99599838 485939.08200073 14.14299965
142835.07799911 485939.11899948 13.18700027
142834.89300156 485938.71599960 17.94400024
142834.96500015 485938.42499924 19.79000092
142836.30099869 485938.72100067 6.99399996
142836.52099991 485938.48799896 7.20699978
142836.66299820 485938.54899979 5.59299994
142836.79999924 485938.60699844 4.05600023
142836.73799896 485938.28499985 7.20100021
142836.87099838 485938.34199905 5.69899988
142837.00199890 485938.39599991 4.24599981
142836.94599915 485938.06700134 7.38000011
142837.09700012 485938.12900162 5.69799995
142836.26699829 485937.50899887 17.25900078
142836.32500076 485937.21599960 19.22299957
142837.40900040 485937.33800125 9.80599976
142836.67599869 485936.76300049 20.24200058
142836.90499878 485936.84999847 17.74900055
142837.51300049 485937.08100128 11.11800003
142837.56700134 485937.10100174 10.55000019
142837.76200104 485937.17599869 8.40499973
142836.76800156 485936.50000000 21.70899963
142837.16799927 485936.65000153 17.35700035
142837.04800034 485936.31999969 21.01399994
142837.35599899 485936.43399811 17.68499947
142837.31999969 485936.15100098 20.29599953
142838.23699951 485936.19800186 12.80900002
142838.55799866 485936.01399994 11.82699966
142839.09999847 485936.20000076 6.09700012
142838.79299927 485935.78499985 11.88399982
142838.88299942 485935.81600189 10.94600010
142838.97900009 485935.84799957 9.94299984
142839.04899979 485935.87200165 9.19699955
142839.34899902 485935.97200012 6.05000019
142839.15299988 485935.32899857 12.85999966
142839.34600067 485935.13000107 13.01599979
142839.85599899 485934.74700165 12.23499966
142840.15399933 485934.83700180 9.18299961
142839.95700073 485934.47900009 13.64700031
142840.08300018 485934.51499939 12.38199997
142840.36700058 485934.59999847 9.49400043
142839.95700073 485934.19800186 15.97000027
142840.10200119 485934.23899841 14.51700020
142840.22299957 485934.27500153 13.28600025
142840.41500092 485934.33000183 11.34700012
142840.00799942 485933.94499969 17.66900063
142840.41400146 485934.05899811 13.58100033
142840.59000015 485934.10900116 11.80500031
142840.47200012 485933.79800034 15.27999973
142840.97700119 485933.93600082 10.22900009
142840.83300018 485933.63199997 13.86699963
142841.01499939 485933.68099976 12.05099964
142841.20000076 485933.73099899 10.20100021
142840.62699890 485933.32600021 17.98399925
142840.99100113 485933.41999817 14.38500023
142840.94900131 485933.14699936 16.95899963
142841.18500137 485933.20600128 14.65299988
142841.37400055 485932.97900009 15.04500008
142841.58499908 485932.74900055 15.31999969
142841.96400070 485932.84299850 11.61999989
142831.34499931 485942.45999908 11.50399971
142831.57999992 485942.25400162 11.37899971
142831.69099998 485941.97000122 12.86999989
142831.77000046 485942.01800156 11.85999966
142831.99300003 485941.46200180 14.71300030
142832.32600021 485941.65800095 10.52499962
142832.40900040 485941.34299850 12.48299980
142832.61000061 485941.13600159 12.62800026
142832.77700043 485941.23099899 10.55099964
142832.48799896 485940.73799896 16.84600067
142832.69400024 485940.54499817 16.84199905
142832.94300079 485940.32699966 16.70899963
142833.02700043 485940.37300110 15.68799973
142833.06499863 485940.06299973 17.94300079
142833.27000046 485940.16999817 15.46300030
142833.27700043 485939.84999847 18.05400085
142834.50600052 485940.14899826 6.07100010
142834.75099945 485939.94300079 5.87300014
142834.47000122 485939.50299835 11.68299961
142834.06900024 485939.00199890 18.91799927
142834.50999832 485939.21200180 13.78299999
142834.73699951 485938.99499893 13.80599976
142835.15299988 485939.19100189 8.96599960
142834.36000061 485938.49300003 20.85300064
142834.65100098 485938.62500000 17.50399971
142835.72299957 485938.81399918 7.66599989
142834.73899841 485938.05099869 21.57399940
142834.93000031 485938.13399887 19.40900040
142835.50600052 485938.09500122 15.25800037
142836.31499863 485938.13899994 8.62699986
142836.55799866 485938.24399948 5.89400005
142836.69400024 485938.30099869 4.38800001
142835.83800125 485937.65399933 16.33300018
142837.10599899 485937.85599899 4.86800003
142835.95299911 485937.08000183 20.16900063
142836.01100159 485937.10400009 19.53800011
142836.26599884 485937.20600128 16.71500015
142837.02500153 485937.20700073 10.82499981
142837.12699890 485937.24700165 9.69900036
142836.51599884 485936.71300125 18.84199905
142837.27500153 485937.00400162 10.56099987
142836.68099976 485936.48799896 19.41600037
142836.86500168 485936.55699921 17.42099953
142836.66799927 485936.20800018 21.82399940
142836.79000092 485936.25400162 20.50499916
142836.87699890 485936.28599930 19.55900002
142836.91699982 485936.02000046 21.44300079
142837.18000031 485936.11600113 18.62299919
142837.31999969 485935.86800003 19.57699966
142837.60400009 485935.96900177 16.54000092
142837.60300064 485935.66799927 19.03700066
142837.83000183 485935.74700165 16.62000084
142837.86199951 485935.48799896 18.52199936
142838.06399918 485935.55599976 16.38400078
142838.51200104 485935.40499878 14.15900040
142838.65599823 485935.45299911 12.65100002
142838.98099899 485935.56000137 9.26399994
142839.52999878 485935.47200012 5.73799992
142838.41899872 485934.83399963 19.59300041
142839.34500122 485934.86299896 12.17800045
142839.70299911 485934.39300156 13.28800011
142839.38100052 485934.02399826 18.82600021
142839.91799927 485933.90200043 15.67099953
142840.37400055 485934.03200150 11.06999969
142840.49300003 485934.06499863 9.87600040
142840.64300156 485933.83700180 10.59899998
142840.83000183 485933.62699890 10.87600040
142840.55199814 485933.28900146 15.81400013
142840.85900116 485933.37099838 12.77799988
142840.90399933 485933.38299942 12.32400036
142840.78599930 485933.07500076 15.76700020
142841.18700027 485933.17900085 11.81700039
142841.59700012 485932.99499893 10.14500046
142842.01499939 485932.31800079 12.50100040
142831.57699966 485941.48500061 14.14000034
142831.71999931 485941.57099915 12.32600021
142831.90099907 485941.33000183 12.92800045
142832.01800156 485941.39899826 11.45199966
142832.09799957 485941.10900116 13.22200012
142832.27999878 485941.21200180 10.95800018
142832.41199875 485940.96500015 11.97599983
142833.19400024 485940.72499847 7.89400005
142832.57600021 485940.03799820 18.31699944
142833.64199829 485940.29399872 7.98299980
142833.72499847 485940.33800125 6.97300005
142833.01300049 485939.62200165 18.37599945
142833.11399841 485939.67399979 17.16600037
142833.23400116 485939.73500061 15.73900032
142833.41500092 485939.52399826 16.08799934
142833.50099945 485939.56700134 15.06499958
142833.58499908 485939.28799820 16.70100021
142834.10200119 485939.24399948 13.06700039
142834.23300171 485939.30899811 11.53600025
142834.31999969 485939.01300049 13.28699970
142833.85699844 485938.47499847 21.29400063
142834.00500107 485938.54399872 19.59099960
142834.11299896 485938.29100037 20.83799934
142834.35200119 485938.40100098 18.07900047
142834.43399811 485938.43799973 17.13599968
142834.37300110 485938.09299850 20.45400047
142834.47800064 485938.14099884 19.25799942
142834.60599899 485938.19800186 17.78300095
142834.48099899 485937.84600067 21.66699982
142834.55400085 485937.87699890 20.82900047
142834.80500031 485937.69800186 20.37000084
142835.29899979 485937.91299820 14.77000046
142836.34400177 485938.36600113 2.95900011
142835.53099823 485937.71300125 14.62300014
142835.24900055 485937.28900146 20.30699921
142835.74200058 485937.49499893 14.78199959
142835.42100143 485937.04399872 21.00200081
142835.89400101 485937.23799896 15.73900032
142837.25999832 485937.50500107 2.98399997
142835.82699966 485936.61100006 21.42499924
142836.34400177 485936.53900146 18.02000046
142837.09600067 485936.82799911 9.81299973
142836.59400177 485936.34899902 17.64900017
142836.64599991 485936.09299850 19.37000084
142836.75999832 485935.83000183 20.63199997
142837.38800049 485935.75999832 16.36499977
142837.75699997 485935.89099884 12.40999985
142837.62599945 485935.56399918 16.13599968
142837.95100021 485935.67699814 12.68599987
142837.81900024 485935.33499908 16.51600075
142838.32899857 485935.22700119 13.45899963
142839.28200150 485935.27399826 5.72399998
142839.39199829 485935.30899811 4.55900002
142838.05599976 485934.60100174 20.75200081
142838.21599960 485934.65100098 19.08900070
142838.43399811 485934.43600082 19.16799927
142838.60599899 485934.49000168 17.39500046
142838.77600098 485934.24499893 18.11800003
142839.13600159 485934.35300064 14.41899967
142839.61100006 485934.23699951 11.72399998
142839.78499985 485934.28799820 9.94400024
142839.83499908 485934.00500107 11.89400005
142840.06200027 485934.07099915 9.60400009
142840.25799942 485934.12699890 7.61199999
142839.55699921 485933.66999817 16.80299950
142840.02799988 485933.80300140 12.06000042
142840.05599976 485933.54499817 13.97500038
142840.23300171 485933.59400177 12.20899963
142840.43500137 485933.38700104 12.34700012
142840.52799988 485933.41299820 11.41399956
142840.07099915 485933.00699997 18.28100014
142840.20700073 485933.04299927 16.93099976
142840.65000153 485933.16099930 12.53800011
142840.86100006 485932.93799973 12.74300003
142841.02999878 485932.71699905 13.26599979
142841.09600067 485932.73500061 12.60999966
142841.56100082 485932.58000183 10.28699970
142841.62099838 485932.33000183 11.88399982
142841.77000046 485932.36500168 10.42599964
142841.81999969 485932.13100052 11.98499966
142831.29700089 485941.24000168 13.57699966
142831.39599991 485941.29899979 12.31799984
142831.41099930 485940.96699905 14.93700027
142831.63800049 485941.09999847 12.08899975
142831.72699928 485940.82699966 13.64799976
142831.81699944 485940.54700089 15.27400017
142832.15800095 485940.73899841 11.03800011
142832.36700058 485940.51699829 11.25000000
142832.14500046 485940.03699875 16.92300034
142832.59799957 485940.28400040 11.37399960
142832.38600159 485939.86299896 16.49300003
142832.91299820 485939.78799820 13.03199959
142832.70100021 485939.37200165 18.11000061
142832.91199875 485939.47900009 15.58100033
142833.25600052 485939.33800125 14.09200001
142833.27700043 485939.04800034 16.32999992
142833.39799881 485939.10800171 14.88799953
142833.50899887 485938.82799911 16.34000015
142833.60499954 485938.87500000 15.21100044
142833.64899826 485938.89599991 14.69600010
142833.76499939 485938.95199966 13.32499981
142833.79100037 485938.64199829 15.68200016
142834.05300140 485938.76800156 12.61299992
142834.17399979 485938.82699966 11.19499969
142833.70299911 485938.29299927 19.25200081
142833.82600021 485938.35100174 17.80500031
142833.97999954 485938.42300034 16.02499962
142834.16199875 485938.18500137 16.59199905
142834.19200134 485937.89300156 18.76499939
142834.34899902 485937.96300125 16.97400093
142834.43600082 485937.71400070 18.34199905
142834.55400085 485937.76800156 16.99099922
142835.70199966 485937.96500015 6.46700001
142835.19499969 485937.43600082 14.75800037
142834.92300034 485936.99499893 20.51300049
142835.00999832 485937.03200150 19.54299927
142835.59400177 485936.99700165 15.29399967
142835.80099869 485936.75600052 15.67300034
142836.16899872 485936.90299988 11.60499954
142835.89500046 485936.51499939 16.94700050
142836.08000183 485936.29700089 17.30999947
142836.15599823 485936.32600021 16.48200035
142836.38399887 485936.13999939 16.24699974
142836.82500076 485936.30599976 11.45499992
142836.30300140 485935.79999924 19.68700027
142836.62699890 485935.91899872 16.18799973
142836.29100037 485935.50000000 22.26000023
142837.16600037 485935.23799896 17.63500023
142837.74000168 485935.15299988 13.87199974
142837.72299957 485934.88199997 16.24900055
142837.89199829 485934.65700150 16.80100060
142837.81000137 485934.34999847 19.97200012
142837.97299957 485934.10400009 20.75200081
142838.29199982 485934.20199966 17.45100021
142838.45500183 485933.99300003 17.93199921
142838.84000015 485934.10900116 13.97500038
142838.40399933 485933.68700027 20.85099983
142838.46500015 485933.70500183 20.22900009
142838.72800064 485933.78200150 17.54800034
142839.08200073 485933.62900162 16.06599998
142839.11500168 485933.37099838 17.93700027
142839.29299927 485933.42200089 16.12899971
142839.62400055 485932.97299957 17.27899933
142839.88299942 485932.76599884 16.98600006
142840.02000046 485932.53799820 17.80800056
142841.24200058 485932.06700134 12.22099972
142841.30899811 485932.08300018 11.58399963
142841.46400070 485931.85400009 12.26399994
142841.54499817 485931.87299919 11.48200035
142841.63499832 485931.62500000 12.83199978
142841.88000107 485931.68000031 10.48099995
142842.19400024 485931.47100067 9.76299953
142842.29700089 485931.24699974 10.82400036
142831.12700081 485941.08599854 12.45100021
142831.53199959 485940.66299820 12.81099987
142831.67000008 485940.39599991 13.93299961
142831.81699944 485940.12699890 15.01599979
142832.14199829 485940.30799866 11.01000023
142832.37599945 485940.12200165 10.73400021
142832.83800125 485939.70000076 10.63099957
142833.05500031 485939.81499863 8.00399971
142833.08300018 485939.50000000 10.38000011
142833.26699829 485939.59500122 8.17700005
142833.09799957 485939.20600128 12.69999981
142833.31000137 485939.31299973 10.17099953
142832.71400070 485938.66899872 20.09499931
142833.00699997 485938.81399918 16.63500023
142832.93799973 485938.46400070 20.05400085
142833.12300110 485938.24399948 20.43300056
142833.63899994 485938.49100113 14.41600037
142833.38199997 485938.04999924 20.04800034
142833.54999924 485937.81999969 20.62999916
142833.70399857 485937.60100174 21.25900078
142834.24200058 485937.54199982 17.55999947
142834.32400131 485937.26900101 19.18700027
142834.66500092 485937.09299850 17.99600029
142835.99000168 485937.36199951 5.52400017
142834.87500000 485936.57699966 20.62899971
142835.02799988 485936.36199951 21.22699928
142836.43600082 485936.62799835 8.11999989
142835.95500183 485936.16199875 15.69200039
142836.59000015 485936.09099960 11.35299969
142836.83599854 485936.18500137 8.67199993
142835.95800018 485935.55699921 20.65800095
142836.11800003 485935.61600113 18.93799973
142835.97499847 485935.27600098 22.85600090
142836.07300186 485935.31100082 21.79999924
142837.45100021 485935.51100159 9.48299980
142837.25699997 485935.15800095 13.88399982
142837.14300156 485934.85300064 17.28800011
142837.42900085 485934.95100021 14.26099968
142837.12099838 485934.56800079 19.83200073
142837.50299835 485934.40599823 18.20499992
142837.69400024 485934.46799850 16.20700073
142837.63800049 485934.15399933 19.23600006
142837.87500000 485934.22900009 16.77000046
142837.65700150 485933.89699936 21.22699928
142837.77299881 485933.93199921 20.01899910
142838.01399994 485934.00799942 17.52300072
142837.93899918 485933.69100189 20.73699951
142838.13499832 485933.75000000 18.72299957
142838.04499817 485933.47000122 21.73200035
142838.96099854 485933.47100067 14.61499977
142839.09199905 485933.51100159 13.27200031
142839.00699997 485933.22600174 16.28700066
142839.13000107 485933.25999832 15.05000019
142839.27799988 485933.30300140 13.54699993
142839.24900055 485933.00299835 16.25099945
142839.48899841 485933.06999969 13.83100033
142839.69300079 485933.12799835 11.78899956
142839.20600128 485932.71699905 18.95499992
142839.45700073 485932.78400040 16.44700050
142840.09199905 485932.68899918 12.32699966
142839.65900040 485932.30400085 18.86000061
142840.49499893 485932.25799942 12.76200008
142841.06499863 485931.88400078 11.43700027
142841.18700027 485931.36100006 14.81099987
142841.41299820 485931.41200066 12.63000011
142841.68500137 485931.47400093 10.00699997
142841.85200119 485931.26700020 10.42300034
142841.82099915 485930.98299980 13.01200008
142830.58699989 485941.19499969 12.96399975
142830.95899963 485940.75899887 13.66899967
142831.32600021 485940.26599884 14.90600014
142831.51499939 485940.37400055 12.55399990
142831.73299980 485940.15999985 12.62399960
142831.88899994 485939.91099930 13.47999954
142832.12900162 485940.04199982 10.53800011
142832.24399948 485939.77199936 11.87399960
142832.31900024 485939.81299973 10.96599960
142832.50299835 485939.59999847 11.28600025
142832.79999924 485939.43299866 10.36800003
142832.98699951 485939.52999878 8.12699986
142833.06499863 485938.88899994 12.79699993
142832.97200012 485938.20700073 19.13500023
142833.38700104 485938.10400009 16.76899910
142833.63000107 485938.22000122 13.94999981
142833.88299942 485938.34000015 11.01299953
142833.36199951 485937.78699875 19.58200073
142833.50199890 485937.85300064 17.94700050
142833.74000168 485937.67300034 17.59900093
142833.59000015 485937.27500153 22.02799988
142833.83599854 485937.38499832 19.23699951
142833.99100113 485937.45399857 17.45899963
142834.09500122 485937.50099945 16.28000069
142833.92599869 485937.11999893 20.70499992
142834.15200043 485937.21900177 18.14900017
142834.35900116 485937.00400162 18.31800079
142834.55699921 485936.77999878 18.63100052
142834.94100189 485936.94400024 14.33100033
142834.50500107 485936.46799850 21.61800003
142834.61000061 485936.51100159 20.43499947
142834.84999847 485936.32899857 20.09000015
142835.00299835 485936.39199829 18.39699936
142835.26800156 485936.50000000 15.44999981
142835.54199982 485936.31700134 14.83199978
142835.54499817 485935.70299911 19.87100029
142835.99300003 485935.87500000 15.00500011
142835.88000107 485935.55300140 18.52300072
142836.12200165 485935.64300156 15.90600014
142836.15499878 485935.34799957 18.08699989
142836.29100037 485935.39699936 16.63400078
142835.97000122 485935.01300049 22.28899956
142836.41400146 485935.17399979 17.51799965
142836.18600082 485934.80799866 22.30699921
142836.25500107 485934.83100128 21.57399940
142836.88700104 485934.78599930 17.04700089
142837.18000031 485934.88700104 13.95300007
142836.91199875 485934.49000168 19.30200005
142837.26800156 485934.61000061 15.56900024
142837.26100159 485934.32400131 17.97999954
142837.47000122 485934.39199829 15.79399967
142837.75899887 485934.48799896 12.77099991
142837.41299820 485934.09700012 18.67799950
142837.91600037 485934.25899887 13.43200016
142837.52799988 485933.84899902 19.82600021
142837.63100052 485933.88100052 18.76399994
142837.82500076 485933.67100143 18.99200058
142838.08499908 485933.48699951 18.50900078
142838.57699966 485933.63700104 13.45699978
142838.65000153 485933.65700150 12.72500038
142838.13299942 485933.23500061 20.21199989
142838.61899948 485932.80799866 19.96500015
142838.92599869 485932.89500046 16.86800003
142839.05699921 485932.93199921 15.56799984
142839.29600143 485932.74399948 15.26500034
142839.62599945 485932.83599854 11.96100044
142839.22200012 485932.43899918 18.34700012
142839.54600143 485932.52600098 15.12399960
142839.36800003 485932.22800064 18.95800018
142839.47999954 485932.25699997 17.84900093
142839.60200119 485932.29000092 16.62999916
142839.56100082 485932.01300049 19.24500084
142839.79499817 485932.07300186 16.94099998
142840.71200180 485932.05799866 9.96899986
142840.05500031 485931.60799980 18.75300026
142840.15000153 485931.62999916 17.82999992
142840.92699814 485931.55299950 12.47399998
142841.19100189 485931.61599922 9.91300011
142840.92900085 485931.29599953 14.58300018
142841.40599823 485931.13699913 12.19900036
142841.55699921 485931.17000008 10.75800037
142841.49800110 485930.90200043 13.42399979
142841.70199966 485930.94700050 11.48400021
142841.75500107 485930.70899963 13.02299976
142841.92399979 485930.49099922 13.51799965
142829.93799973 485941.43999863 12.28600025
142830.16900063 485941.25500107 12.03299999
142830.40200043 485941.04800034 11.93799973
142830.62000084 485940.85599899 11.82900047
142830.65099907 485940.51100159 14.42300034
142830.73399925 485940.56100082 13.37199974
142830.94400024 485940.33499908 13.62199974
142831.07500076 485940.41199875 11.97900009
142831.19400024 485940.15000153 13.21899986
142831.32299995 485940.22200012 11.63899994
142831.49699974 485939.96900177 12.35999966
142831.77300072 485939.79800034 11.64000034
142832.00799942 485939.60599899 11.40600014
142832.10900116 485939.66099930 10.16600037
142832.26800156 485939.42100143 10.91399956
142832.54399872 485939.23199844 10.33100033
142832.74900055 485939.33900070 7.86999989
142832.40999985 485938.51300049 17.29100037
142832.73500061 485938.67699814 13.43299961
142832.83599854 485938.72700119 12.25599957
142832.41699982 485938.17599869 20.00300026
142832.63999939 485938.28400040 17.38999939
142833.27600098 485938.29700089 12.37600040
142833.35400009 485938.02299881 14.03800011
142833.52999878 485937.80799866 14.44799995
142833.85499954 485937.95999908 10.67700005
142833.61600113 485937.52099991 16.14800072
142833.93799973 485937.66600037 12.45600033
142833.46500015 485937.13899994 20.46100044
142833.57300186 485937.18700027 19.22699928
142833.67499924 485937.23300171 18.04100037
142833.55899811 485936.87900162 21.87299919
142834.01800156 485937.08100128 16.65500069
142834.24100113 485936.86399841 16.73299980
142834.36500168 485936.61899948 17.77499962
142834.29600143 485936.31000137 20.86100006
142835.68199921 485936.88600159 5.41099977
142835.90800095 485936.97900009 2.90000010
142834.52899933 485936.11399841 20.67799950
142834.64699936 485936.16199875 19.37000084
142835.04899979 485936.32699966 14.89500046
142834.95399857 485935.98300171 18.46500015
142836.01300049 485936.40599823 6.80900002
142835.54800034 485935.89899826 14.56599998
142836.09600067 485936.11199951 8.57199955
142835.67800140 485935.67399979 15.41699982
142836.07799911 485935.82699966 11.06400013
142835.33399963 485935.22900009 21.74200058
142835.65299988 485935.34999847 18.29100037
142835.80799866 485935.13600159 18.83900070
142835.91999817 485935.17900085 17.62299919
142836.01800156 485935.21300125 16.59099960
142836.08900070 485935.24000168 15.80799961
142835.85200119 485934.87099838 20.68499947
142836.13700104 485934.70600128 19.84300041
142836.18799973 485934.41999817 21.80599976
142836.34500122 485934.47600174 20.14299965
142836.55699921 485934.54899979 17.90299988
142836.86100006 485934.36000061 17.09900093
142837.00400162 485934.40900040 15.59799957
142836.66199875 485934.01499939 21.47400093
142836.89199829 485934.09199905 19.07600021
142837.09099960 485934.15700150 16.98800087
142836.77999878 485933.77299881 22.56399918
142836.85200119 485933.79600143 21.81999969
142836.99300003 485933.84400177 20.33499908
142837.30599976 485933.94300079 17.08600044
142837.11899948 485933.61000061 21.28899956
142837.48899841 485933.72600174 17.47100067
142837.56999969 485933.75299835 16.61199951
142838.13600159 485933.93199921 10.76900005
142838.29899979 485933.98300171 9.09899998
142837.54499817 485933.48600006 19.01600075
142837.66400146 485933.52299881 17.79800034
142837.78400040 485933.55899811 16.55800056
142838.09899902 485933.65800095 13.31000042
142837.84299850 485933.29999924 18.24900055
142837.97999954 485933.34000015 16.84399986
142838.32799911 485933.44699860 13.27099991
142838.42100143 485933.47399902 12.33500004
142837.94900131 485933.05599976 19.42900085
142838.17900085 485933.12400055 17.08799934
142838.48699951 485933.21599960 13.94699955
142838.28099823 485932.86000061 18.49099922
142838.73400116 485932.99000168 13.90400028
142838.80699921 485932.75600052 15.26799965
142839.18600082 485932.86399841 11.45199966
142838.91299820 485932.49900055 16.56500053
142839.40200043 485932.63399887 11.68200016
142838.82400131 485932.22299957 19.54199982
142838.91899872 485932.24800110 18.58499908
142839.14400101 485932.31000137 16.34799957
142839.28400040 485932.34600067 14.96100044
142839.20299911 485932.05899811 17.96100044
142839.27399826 485932.07799911 17.24799919
142839.44900131 485932.12400055 15.50699997
142839.81600189 485932.22100067 11.89500046
142839.42800140 485931.86499977 17.81599998
142839.68899918 485931.93199921 15.23600006
142839.57500076 485931.62299919 18.67300034
142840.00000000 485931.72800064 14.51700020
142839.90299988 485931.43400002 17.69099998
142840.20199966 485931.50699997 14.78899956
142839.97100067 485931.19400024 19.14599991
142840.09799957 485931.22400093 17.90800095
142840.48899841 485931.31800079 14.13599968
142840.36399841 485931.02400017 17.51000023
142840.66999817 485931.09600067 14.55500031
142840.94100189 485931.15900040 11.94200039
142840.93000031 485930.89699936 14.19299984
142841.22600174 485930.96400070 11.34700012
142841.22700119 485930.71699905 13.37100029
142841.41400146 485930.75799942 11.58199978
142829.73299980 485940.89599991 13.19200039
142830.14699936 485940.82500076 10.56900024
142830.32099915 485940.56200027 11.39099979
142830.29800034 485940.20000076 14.55200005
142830.54500008 485940.00899887 14.22099972
142830.77599907 485940.14400101 11.31700039
142830.89599991 485939.86199951 12.72799969
142830.94599915 485939.89099884 12.09300041
142831.07399940 485939.62900162 13.26200008
142831.89200020 485939.09899902 11.30099964
142832.04299927 485939.17800140 9.47200012
142831.94599915 485938.77999878 13.52999973
142832.19400024 485938.90700150 10.55000019
142832.40599823 485939.01699829 7.98199987
142832.09000015 485938.54600143 14.33699989
142832.47999954 485938.74499893 9.65900040
142832.37799835 485938.34299850 13.77700043
142832.61100006 485938.15599823 13.51500034
142832.47499847 485937.77999878 17.66200066
142832.61899948 485937.85100174 15.98600006
142832.84700012 485937.96099854 13.30599976
142833.08300018 485937.77500153 13.00100040
142833.00999832 485937.40900040 16.58699989
142833.34500122 485937.56299973 12.71700001
142833.06299973 485937.11299896 18.61199951
142833.24499893 485937.19699860 16.52000046
142833.61999893 485937.36700058 12.20499992
142833.82099915 485937.45999908 9.88799953
142833.15000153 485936.85200119 20.11000061
142833.30199814 485936.91899872 18.36499977
142833.33300018 485936.61899948 20.61700058
142833.57799911 485936.72600174 17.81100082
142833.65700150 485936.76200104 16.93199921
142833.52199936 485936.40399933 20.92099953
142833.86999893 485936.55400085 16.99300003
142833.96500015 485936.31200027 18.23900032
142834.16099930 485936.09899902 18.47800064
142834.25099945 485936.13800049 17.46400070
142835.57600021 485936.68600082 2.68199992
142834.80899811 485936.05799866 13.79699993
142835.69499969 485936.09099960 6.67000008
142835.77500153 485936.12200165 5.78800011
142834.89099884 485935.49100113 17.86199951
142835.25000000 485935.62900162 13.92199993
142835.23600006 485935.31200027 16.65399933
142834.98300171 485934.94100189 21.68400002
142835.29299927 485935.05899811 18.31200027
142835.46900177 485935.12400055 16.40699959
142835.56600189 485934.87699890 17.69400024
142835.84099960 485934.97800064 14.72399998
142836.18899918 485934.82799911 13.26700020
142835.68500137 485934.34500122 21.16500092
142836.19699860 485934.52500153 15.71300030
142835.83900070 485934.10699844 21.93400002
142835.92800140 485934.13700104 21.00499916
142836.25299835 485934.25099945 17.55299950
142836.08700180 485933.91199875 21.62899971
142836.27600098 485933.97800064 19.62100029
142836.51100159 485934.05699921 17.13800049
142836.57500076 485933.79399872 18.83799934
142836.56399918 485933.51399994 21.22800064
142836.88299942 485933.61700058 17.89800072
142836.94599915 485933.63600159 17.24099922
142837.11199951 485933.69100189 15.51200008
142836.92300034 485933.36899948 19.63199997
142837.40000153 485933.52099991 14.67800045
142837.52899933 485933.28300095 15.63700008
142837.76699829 485933.35699844 13.17800045
142837.79299927 485933.08000183 15.28199959
142838.15800095 485933.18999863 11.54500008
142838.34899902 485932.95199966 12.02799988
142838.65399933 485933.04100037 8.93299961
142838.74499893 485933.06800079 8.00399971
142838.66099930 485932.78200150 11.01200008
142838.90999985 485932.85400009 8.50100040
142838.32500076 485932.39699936 16.79899979
142838.58700180 485932.21699905 16.24600029
142839.19200134 485932.38399887 10.19400024
142839.26300049 485932.13299942 11.71100044
142839.63800049 485931.97299957 10.11400032
142839.41099930 485931.62700081 14.73400021
142839.73799896 485931.71199989 11.51099968
142839.87799835 485931.74799919 10.12100029
142839.69699860 485931.43099976 14.15299988
142839.76499939 485931.44899940 13.47900009
142839.65100098 485931.15600014 16.76700020
142840.24599838 485931.30100060 10.96100044
142839.79299927 485930.92799950 17.56399918
142840.04600143 485930.98699951 15.10799980
142840.06200027 485930.73100090 17.09900093
142840.49000168 485930.82999992 12.96300030
142840.24599838 485930.53199959 17.31900024
142840.40599823 485930.56800079 15.78800011
142840.68600082 485930.63199997 13.08800030
142840.95500183 485930.42900085 12.66899967
142841.09400177 485930.45899963 11.34399986
142830.12199974 485940.36999893 10.31200027
142830.28599930 485939.77799988 13.91899967
142830.58399963 485939.61199951 13.00000000
142830.87400055 485939.77600098 9.38099957
142831.13199997 485939.59999847 8.84099960
142831.04700089 485938.54299927 18.23100090
142832.01399994 485938.73699951 9.12699986
142831.38599968 485938.07300186 19.47800064
142831.59799957 485937.87599945 19.46400070
142832.28200150 485937.90000153 13.96899986
142832.29800034 485937.61399841 16.20499992
142832.53799820 485937.39500046 16.15999985
142832.84700012 485937.54000092 12.55700016
142832.78099823 485937.19200134 15.95100021
142833.09199905 485937.33399963 12.35999966
142833.35100174 485937.13899994 11.96300030
142832.94599915 485936.63899994 19.23399925
142833.11399841 485936.71400070 17.31299973
142833.29499817 485936.79600143 15.23299980
142833.53599930 485936.59899902 14.98999977
142833.79399872 485936.71200180 12.04899979
142833.59199905 485936.33700180 16.73600006
142833.77299881 485936.41500092 14.67300034
142834.06700134 485936.24100113 13.83500004
142833.84999847 485935.84400177 18.79899979
142835.30599976 485936.44900131 2.50699997
142835.29899979 485936.11700058 5.31400013
142834.78300095 485935.61899948 13.43400002
142834.87400055 485935.33700180 15.04500008
142835.02099991 485935.39500046 13.42800045
142834.98400116 485935.10599899 16.10700035
142835.08599854 485935.14500046 14.99100018
142835.55300140 485935.32300186 9.89999962
142834.71599960 485934.71699905 21.39900017
142835.13700104 485934.60400009 19.08399963
142835.13299942 485934.29199982 21.68799973
142835.57500076 485934.45199966 16.92300034
142835.29899979 485934.06100082 22.31200027
142835.43399811 485934.10900116 20.86100006
142835.59099960 485934.16400146 19.19300079
142835.67900085 485933.91799927 20.54800034
142835.91500092 485933.99800110 18.05599976
142836.35800171 485933.85800171 15.77000046
142836.46300125 485933.89300156 14.64900017
142836.50600052 485933.63299942 16.48399925
142836.60699844 485933.66600037 15.42899990
142837.10800171 485933.83200073 10.18500042
142837.40200043 485933.92800140 7.10699987
142836.42300034 485933.34199905 19.52700043
142836.56600189 485933.38899994 18.04599953
142836.88899994 485933.49300003 14.66199970
142836.56100082 485933.11199951 20.36899948
142836.71400070 485933.16099930 18.78599930
142836.99000168 485933.24700165 15.92099953
142837.11399841 485933.28599930 14.63000011
142837.18700027 485933.02199936 16.24399948
142837.28900146 485933.05500031 15.18900013
142837.67300034 485933.17300034 11.23299980
142837.08599854 485932.69699860 19.72299957
142838.04499817 485932.72600174 12.04599953
142838.13700104 485932.45800018 13.53800011
142838.77399826 485932.11299896 11.46399975
142839.06100082 485932.19200134 8.59000015
142838.98400116 485931.90900040 11.53100014
142839.12300110 485931.94599915 10.12899971
142839.26800156 485931.98399925 8.70600033
142839.17300034 485931.67099953 12.02799988
142839.05599976 485931.36700058 15.42399979
142839.18199921 485931.39900017 14.20199966
142839.26900101 485931.42300034 13.33399963
142839.26800156 485931.16099930 15.50300026
142839.44599915 485931.20700073 13.74899960
142839.57300186 485931.23900032 12.49899960
142839.45000076 485930.93700027 15.93400002
142839.94100189 485931.05800056 11.13300037
142839.63199997 485930.72299957 16.29899979
142839.77399826 485930.75600052 14.92800045
142839.81999969 485930.51899910 16.52499962
142839.96099854 485930.55100060 15.17199993
142840.01399994 485930.30500031 16.79899979
142840.15000153 485930.33499908 15.48799992
142840.17499924 485930.07900047 17.42099953
142840.38199997 485930.12500000 15.42599964
142840.55099869 485929.88500023 16.09399986
142840.61100006 485929.89900017 15.51900005
142829.79500008 485940.24800110 11.18099976
142830.02700043 485940.02199936 11.24499989
142830.11300087 485940.07300186 10.16300011
142830.32900047 485939.87099838 10.16899967
142830.39299965 485939.90800095 9.34899998
142830.62100029 485939.70299911 9.28199959
142830.56200027 485938.66199875 18.32500076
142830.66300011 485938.71599960 17.08600044
142830.76300049 485938.44400024 18.54400063
142831.36199951 485938.43299866 14.02900028
142831.84900093 485938.36199951 10.85599995
142831.35799980 485937.80699921 19.19700050
142832.03599930 485938.15100098 11.13799953
142832.23799896 485938.25199890 8.74400043
142832.53499985 485938.08100128 7.85300016
142832.35699844 485937.65999985 12.69099998
142832.24100113 485937.27000046 16.80400085
142832.81999969 485936.62200165 17.66699982
142834.10800171 485936.88999939 5.49800014
142833.59400177 485936.37200165 13.75500011
142833.36199951 485935.94400024 19.07799911
142833.87599945 485936.16299820 13.29599953
142835.07899857 485936.36199951 2.34100008
142833.75899887 485935.50799942 19.59499931
142833.91400146 485935.57300186 17.86400032
142835.07500076 485936.04899979 4.97399998
142833.96200180 485935.29100037 19.81399918
142834.06999969 485935.33499908 18.61800003
142834.78400040 485935.32899857 13.14799976
142834.92100143 485935.10300064 13.93799973
142835.22600174 485934.92599869 13.04599953
142835.41299820 485934.69200134 13.51599979
142835.06200027 485934.26100159 19.80500031
142835.10200119 485934.27399826 19.38699913
142835.18500137 485934.03400040 20.71699905
142835.49900055 485934.14699936 17.36000061
142835.66600037 485934.20600128 15.57699966
142835.39099884 485933.80199814 21.03499985
142836.57300186 485933.94400024 10.72000027
142836.98300171 485934.08399963 6.40199995
142836.87699890 485933.75899887 9.90400028
142837.23899841 485933.87900162 6.10799980
142836.47900009 485933.36299896 16.23699951
142836.52099991 485933.37699890 15.79800034
142836.54800034 485933.08399963 18.01499939
142836.63399887 485933.11100006 17.11800003
142836.94200134 485933.20999908 13.91899967
142836.67200089 485932.84099960 19.05299950
142836.79800034 485932.88100052 17.75900078
142836.95399857 485932.92900085 16.13500023
142836.73500061 485932.59000015 20.64299965
142836.80799866 485932.61299896 19.88500023
142837.02999878 485932.67900085 17.61300087
142837.25299835 485932.74800110 15.31999969
142836.87799835 485932.35499954 21.47599983
142836.95600128 485932.38000107 20.67799950
142837.93199921 485932.39699936 12.96199989
142838.19300079 485931.94300079 14.68500042
142838.52999878 485932.03699875 11.31799984
142838.61999893 485932.06200027 10.40299988
142838.73300171 485931.80999947 11.61699963
142838.88600159 485931.85199928 10.08100033
142838.71900177 485931.52000046 14.10799980
142838.83399963 485931.54999924 12.96800041
142838.91199875 485931.57200050 12.19999981
142838.94100189 485931.32600021 13.99100018
142839.08200073 485931.36300087 12.59099960
142839.47499847 485931.46500015 8.72099972
142839.11299896 485931.08799934 14.62800026
142839.45999908 485931.17600060 11.22500038
142839.54399872 485931.19799995 10.38000011
142839.67300034 485931.22999954 9.12500000
142839.25699997 485930.87199974 15.28899956
142839.74599838 485930.99399948 10.50199986
142839.83499908 485931.01600075 9.63199997
142839.39699936 485930.64399910 16.09499931
142839.46699905 485930.41500092 17.42900085
142839.61100006 485930.44799995 16.04800034
142839.75799942 485930.48500061 14.62199974
142839.85599899 485930.50799942 13.66800022
142839.80899811 485930.22100067 16.39900017
142839.96699905 485930.25699997 14.87399960
142840.12300110 485930.02400017 15.58199978
142840.63899994 485930.13999939 10.63799953
142840.75099945 485929.90999985 11.67599964
142829.47599983 485939.98199844 12.60599995
142829.69000053 485939.79399872 12.51599979
142829.95100021 485939.60100174 12.08399963
142830.50399971 485939.24200058 10.76799965
142830.63299942 485939.31399918 9.16800022
142830.74300003 485939.03499985 10.62800026
142830.86300087 485939.10100174 9.14700031
142830.43300056 485938.53400040 17.13599968
142830.46999931 485938.21699905 19.45000076
142830.56699944 485938.26900101 18.28199959
142830.63899994 485938.30599976 17.41399956
142830.68099976 485938.32899857 16.90299988
142830.82099915 485938.08399963 17.83499908
142830.94700050 485937.84899902 18.79400063
142831.11899948 485937.93600082 16.76399994
142831.39599991 485938.08100128 13.43000031
142831.21100044 485937.66699982 18.25799942
142831.56800079 485937.84700012 14.02900028
142831.76799965 485937.62200165 14.34300041
142832.34000015 485937.26100159 12.87399960
142832.73400116 485937.45100021 8.27200031
142832.14899826 485936.54000092 20.30599976
142832.24200058 485936.28200150 21.70299911
142832.34700012 485936.32899857 20.50600052
142833.38700104 485936.50799942 10.99899960
142834.12900162 485936.50199890 5.32000017
142833.69699860 485935.99399948 12.84200001
142833.20899963 485935.49399948 20.71699905
142833.42399979 485935.27399826 20.87100029
142833.88899994 485935.17499924 18.09399986
142833.99900055 485934.94200134 19.16200066
142834.21099854 485934.73600006 19.23200035
142834.63100052 485934.59799957 17.11899948
142835.03499985 485934.75099945 12.73700047
142835.02899933 485934.43399811 15.39200020
142835.22900009 485934.50899887 13.22999954
142835.38999939 485934.29199982 13.77700043
142835.81800079 485934.44900131 9.17300034
142835.97600174 485934.19599915 10.04399967
142835.43399811 485933.73199844 18.04599953
142835.65399933 485933.80799866 15.72000027
142836.17399979 485933.98899841 10.21700001
142836.60400009 485934.13999939 5.64900017
142835.84700012 485933.59400177 15.99100018
142836.12500000 485933.68999863 13.05300045
142836.38199997 485933.77799988 10.35299969
142836.29499817 485933.47399902 13.51200008
142836.53799820 485933.25500107 13.43700027
142836.79999924 485933.34199905 10.71100044
142836.44699860 485932.93399811 16.78400040
142836.50999832 485932.95500183 16.12999916
142836.74200058 485933.02899933 13.72399998
142836.38600159 485932.64300156 19.65800095
142836.60400009 485932.71200180 17.40699959
142836.68399811 485932.45600128 18.89900017
142836.88100052 485932.51599884 16.88400078
142836.99900055 485932.55199814 15.67500019
142837.18099976 485932.60800171 13.79399967
142836.82699966 485932.22900009 19.66900063
142837.01100159 485932.28499985 17.78400040
142837.23099899 485932.35100174 15.54500008
142837.25999832 485932.09999847 17.38299942
142837.41999817 485932.14699936 15.76299953
142837.75299835 485932.24499893 12.38099957
142837.81800079 485932.26499939 11.72200012
142838.11999893 485932.07400131 10.95300007
142837.98300171 485931.75699997 14.61299992
142838.40800095 485931.58300018 12.76799965
142838.48799896 485931.60600090 11.97000027
142838.57500076 485931.37500000 13.18200016
142838.74200058 485931.13400078 13.88300037
142839.02299881 485931.20899963 11.11100006
142838.87300110 485930.91600037 14.66899967
142839.16899872 485930.47500038 16.01300049
142839.42599869 485930.53800011 13.52499962
142839.26699829 485930.22100067 17.35000038
142839.56499863 485930.29100037 14.48400021
142839.60900116 485930.03800011 16.21800041
142839.80099869 485929.82399940 16.50200081
142840.24300003 485929.92300034 12.26399994
142840.45100021 485929.70599937 12.43999958
142828.77899933 485940.51200104 8.84399986
142829.42300034 485939.86800003 9.17300034
142829.71599960 485939.37699890 10.97000027
142829.84399986 485939.09099960 12.33399963
142830.28800011 485939.00000000 9.64999962
142830.48999977 485938.77700043 9.92000008
142830.94499969 485938.34899902 9.92399979
142830.61800003 485937.86999893 16.41500092
142830.64599991 485937.56499863 18.71199989
142830.82399940 485937.65499878 16.59000015
142830.76199913 485937.30199814 19.96899986
142830.90600014 485937.37500000 18.27300072
142831.08699989 485937.46500015 16.12800026
142831.20700073 485937.18199921 17.54100037
142831.30800056 485937.23199844 16.34399986
142831.49600029 485937.32500076 14.12699986
142832.23600006 485937.39099884 7.83500004
142831.43300056 485936.66099930 20.06999969
142831.83399963 485936.85300064 15.39599991
142831.58900070 485936.44100189 20.68499947
142831.74799919 485936.51599884 18.83799934
142832.22200012 485936.14300156 18.23699951
142832.13100052 485935.77799988 21.96800041
142832.44499969 485935.60300064 20.98299980
142833.52899933 485935.76800156 11.22999954
142834.38800049 485935.81800079 4.17199993
142834.59500122 485935.90399933 1.86199999
142833.13000107 485934.99599838 20.68600082
142834.24399948 485935.17100143 10.61600018
142834.45800018 485934.95399857 10.74800014
142834.26800156 485934.26599884 17.90200043
142834.49800110 485934.07699966 17.69199944
142834.69599915 485934.15000153 15.55200005
142834.89699936 485933.91699982 15.91399956
142835.28099823 485933.78099823 14.05700016
142835.65999985 485933.91600037 10.02200031
142835.07400131 485933.42800140 18.58200073
142835.46300125 485933.56399918 14.44099998
142835.31200027 485933.24100113 18.28700066
142835.49399948 485933.30300140 16.35700035
142835.60800171 485933.34199905 15.15600014
142835.72600174 485933.38199997 13.90299988
142835.70800018 485933.06999969 16.62100029
142835.84199905 485933.11600113 15.21500015
142836.03300095 485932.89099884 15.58500004
142836.20100021 485932.94499969 13.83399963
142836.40299988 485932.73300171 14.02600002
142836.33900070 485932.43000031 17.02000046
142836.67399979 485932.26300049 15.82100010
142836.58700180 485931.97699928 18.84799957
142836.86500168 485932.05899811 16.01300049
142837.52700043 485931.97900009 11.54599953
142837.69300079 485931.74500084 12.20800018
142837.73899841 485931.75799942 11.74300003
142837.11500168 485931.29199982 20.41500092
142837.23799896 485931.32699966 19.17300034
142837.46500015 485931.13699913 18.97999954
142838.00299835 485931.28300095 13.61800003
142838.01699829 485931.00300026 15.81200027
142838.10699844 485931.02599907 14.92300034
142838.27999878 485931.07299995 13.21300030
142838.22800064 485930.80500031 15.81499958
142838.33200073 485930.83099937 14.79699993
142838.53599930 485930.88500023 12.78100014
142838.51900101 485930.61899948 15.10400009
142838.71900177 485930.67000008 13.12699986
142838.90299988 485930.71699905 11.31599998
142839.08900070 485930.76399994 9.47799969
142838.55199814 485930.37400055 16.86700058
142838.71099854 485930.41200066 15.32299995
142838.89599991 485930.45899963 13.51099968
142839.08700180 485930.50600052 11.63899994
142839.15700150 485930.52300072 10.95400047
142838.87200165 485930.17099953 16.06699944
142839.09400177 485930.22599983 13.89700031
142839.39500046 485930.29700089 10.97099972
142839.04700089 485929.94799995 16.54899979
142839.29499817 485930.00799942 14.14500046
142839.60699844 485930.08099937 11.12699986
142839.70100021 485929.84300041 12.35299969
142839.83100128 485929.87299919 11.10499954
142839.46699905 485929.52700043 16.78100014
142839.61500168 485929.56100082 15.36200047
142839.74200058 485929.58900070 14.13599968
142839.68799973 485929.31800079 16.79500008
142839.86199951 485929.11199951 17.15399933
142828.29599953 485940.15999985 11.59200001
142828.45000076 485940.25899887 9.59399986
142828.56399918 485939.97299957 11.06700039
142828.81999969 485940.13299942 7.76700020
142828.68499947 485939.69800186 12.39799976
142828.81200027 485939.77600098 10.77600002
142828.94000053 485939.52399826 11.85599995
142829.05100060 485939.59099960 10.45600033
142829.17200089 485939.66600037 8.89200020
142829.19099998 485939.33800125 11.45899963
