142831.32999992 485939.63999939 11.21000004
142831.12000084 485939.50000000 10.72999954
142830.90999985 485939.34999847 10.39000034
142830.71999931 485939.22999954 9.60000038
142831.01000023 485939.50999832 4.90999985
142830.37999916 485938.95000076 11.40999985
142830.00000000 485938.70000076 9.92000008
142829.53000069 485938.36000061 9.92000008
142829.62000084 485938.45000076 8.39000034
142829.90999985 485938.72999954 3.46000004
142829.37000084 485938.25999832 8.67000008
142829.10000038 485938.11999893 5.05999994
142828.67000008 485937.75999832 8.39999962
142828.86000061 485937.95000076 5.09000015
142828.55999947 485937.70999908 6.25000000
142828.62000084 485937.77000046 5.15000010
142828.35000038 485937.56000137 5.84000015
142833.70999908 485940.84000015 13.28999996
142833.24000168 485940.54000092 9.93999958
142832.83000183 485940.25999832 9.02999973
142832.56000137 485940.04999924 9.55000019
142832.25999832 485939.83000183 10.48999977
142831.89999962 485939.52999878 12.47000027
142832.02000046 485939.65000153 10.59000015
142831.72999954 485939.43000031 11.35999966
142831.82999992 485939.52999878 9.80000019
142831.89999962 485939.59000015 8.72999954
142830.85000038 485938.81000137 10.42000008
142830.62000084 485938.63999939 10.36999989
142830.92000008 485938.93000031 5.51000023
142830.47999954 485938.61999893 4.88000011
142829.97999954 485938.18999863 9.30000019
142829.88999939 485938.15999985 6.86999989
142830.10000038 485938.36999893 3.38000011
142829.59000015 485937.93000031 7.94999981
142829.22999954 485937.63999939 10.09000015
142829.35000038 485937.75999832 7.92999983
142829.54000092 485937.93999863 4.67000008
142829.02000046 485937.50000000 9.53999996
142829.28000069 485937.75000000 5.01000023
142828.79000092 485937.33000183 9.56000042
142829.03000069 485937.56999969 5.23000002
142828.51000023 485937.11000061 10.32999992
142828.47999954 485937.15000153 6.63999987
142833.88000107 485940.70999908 13.31000042
142833.68000031 485940.58000183 12.82999992
142833.43999863 485940.45000076 9.47000027
142833.50999832 485940.56999969 4.90999985
142833.00000000 485940.13999939 9.09000015
142832.09000015 485939.43999863 12.11999989
142831.96999931 485939.38000107 10.32999992
142832.09000015 485939.49000168 8.50000000
142831.70999908 485939.18000031 10.81999969
142831.37999916 485939.02999878 4.69000006
142831.10000038 485938.81999969 5.32999992
142830.64999962 485938.43999863 8.89000034
142830.85000038 485938.63999939 5.55999994
142830.39999962 485938.25999832 9.17000008
142830.12000084 485938.04000092 9.97000027
142830.21999931 485938.13999939 8.27999973
142829.85000038 485937.83000183 10.55000019
142829.84000015 485937.88999939 6.65000010
142830.00000000 485938.04999924 3.78999996
142829.44000053 485937.56000137 9.51000023
142829.63999939 485937.75999832 5.96999979
142829.73999977 485937.84999847 4.26000023
142829.21999931 485937.40000153 9.13000011
142829.14999962 485937.40000153 6.25000000
142828.67000008 485936.99000168 10.48999977
142828.94000053 485937.25000000 5.86999989
142828.71999931 485937.09000015 5.55000019
142835.75000000 485941.79999924 3.99000001
142834.68000031 485940.88000107 12.48999977
142834.25999832 485940.54000092 15.10999966
142833.95999908 485940.36000061 12.73999977
142833.40999985 485939.93999863 14.02000046
142833.02999878 485939.68999863 12.61999989
142833.56000137 485940.18000031 4.76000023
142832.95000076 485939.72000122 6.67000008
142832.31000137 485939.15999985 12.90999985
142832.18999863 485939.09999847 11.18000031
142832.13000107 485939.09999847 8.40999985
142831.70999908 485938.75000000 11.34000015
142831.82999992 485938.91999817 5.75000000
142831.04999924 485938.27999878 10.68999958
142831.12000084 485938.34999847 9.50000000
142831.12999916 485938.41999817 5.42999983
142830.54999924 485937.90999985 11.18000031
142830.69000053 485938.04999924 8.78999996
142830.95000076 485938.29999924 4.59000015
142830.06999969 485937.50999832 15.27000046
142830.14999962 485937.63999939 10.00000000
142830.29999924 485937.84999847 3.40000010
142829.78000069 485937.40000153 8.28999996
142829.52000046 485937.20000076 8.76000023
142829.26000023 485937.00999832 9.06000042
142829.35000038 485937.11000061 7.44999981
142829.00000000 485936.81000137 9.60999966
142828.72999954 485936.68000031 5.88000011
142836.20999908 485941.86000061 5.90999985
142835.97999954 485941.68999863 5.88000011
142835.18000031 485940.99000168 13.81999969
142835.88000107 485941.65999985 3.86999989
142834.97000122 485940.84000015 13.35000038
142835.18999863 485941.04999924 10.19999981
142834.38999939 485940.40000153 14.97999954
142834.59999847 485940.59000015 12.06999969
142834.11999893 485940.20000076 15.51000023
142834.09000015 485940.22000122 12.56999969
142833.63999939 485939.84000015 15.78999996
142833.93000031 485940.11999893 11.43999958
142833.16999817 485939.50999832 15.78999996
142833.33000183 485939.65999985 13.40999985
142832.95999908 485939.36000061 15.44999981
142833.09000015 485939.47999954 13.60999966
142833.36000061 485939.72999954 9.52000046
142833.66999817 485940.02999878 4.76999998
142832.88999939 485939.34000015 13.05000019
142832.65999985 485939.16999817 13.03999996
142832.84999847 485939.40999985 6.51999998
142833.22999954 485939.77000046 0.62000000
142832.34999847 485938.99000168 10.56999969
142832.49000168 485939.11999893 8.36999989
142832.59999847 485939.22999954 6.63000011
142831.87999916 485938.59999847 14.21000004
142832.13000107 485938.83000183 10.39000034
142832.25999832 485938.95999908 8.34000015
142831.95000076 485938.72000122 9.34000015
142831.95000076 485938.77000046 5.73999977
142831.27000046 485938.24000168 8.89000034
142831.05999947 485938.09000015 8.47999954
142830.45000076 485937.54999924 14.82999992
142830.84000015 485937.93000031 8.26000023
142831.04000092 485938.11999893 5.03000021
142830.31999969 485937.49000168 13.02000046
142830.00000000 485937.22999954 14.50000000
142830.61000061 485937.81999969 4.26999998
142830.23999977 485937.52000046 6.53999996
142830.43000031 485937.70999908 3.30999994
142829.89999962 485937.25000000 8.32999992
142830.17000008 485937.50999832 3.69000006
142829.56999969 485937.04999924 5.69000006
142829.09000015 485936.63999939 10.07999992
142829.18000031 485936.79000092 4.34000015
142828.02000046 485935.83000183 12.48999977
142827.82999992 485935.70000076 11.71000004
142836.50000000 485941.65000153 4.57999992
142835.54999924 485940.86000061 11.21000004
142835.11999893 485940.50999832 13.90999985
142835.70999908 485941.06000137 5.65999985
142834.81000137 485940.27000046 14.97000027
142834.91999817 485940.36000061 13.47999954
142834.70999908 485940.20999908 13.21000004
142834.20999908 485939.79999924 17.00000000
142834.36999893 485939.95000076 14.59000015
142834.09000015 485939.74000168 15.35999966
142834.29000092 485939.93000031 12.36999989
142833.97999954 485939.68999863 13.53999996
142833.68000031 485939.45000076 14.51000023
142833.29999924 485939.13999939 16.71999931
142833.68999863 485939.50999832 10.90999985
142833.08000183 485938.99000168 16.53000069
142832.88999939 485938.86000061 15.89000034
142832.99000168 485938.95000076 14.39000034
142832.86000061 485938.88000107 12.85999966
142832.40000153 485938.54999924 12.78999996
142833.16999817 485939.29000092 0.68000001
142832.08000183 485938.29999924 13.98999977
142832.15000153 485938.41999817 9.28999996
142832.31999969 485938.59000015 6.57000017
142832.11999893 485938.45000076 6.01000023
142831.31999969 485937.72999954 15.10000038
142831.03000069 485937.50999832 15.97000027
142831.27000046 485937.79999924 8.25000000
142831.34000015 485937.93000031 3.15000010
142830.35000038 485937.02999878 15.68999958
142831.27000046 485937.91999817 0.30000001
142830.19000053 485936.93000031 14.43999958
142830.38999939 485937.11999893 11.18000031
142829.92000008 485936.72000122 15.09000015
142830.07999992 485936.86999893 12.47999954
142830.43000031 485937.22000122 6.50000000
142830.62000084 485937.40000153 3.26999998
142830.11000061 485936.95999908 7.92000008
142830.21999931 485937.06999969 6.03000021
142830.37999916 485937.22999954 3.25999999
142829.62000084 485936.54999924 12.28999996
142829.37999916 485936.36999893 12.43000031
142829.71999931 485936.70000076 6.50000000
142828.22999954 485935.54999924 11.98999977
142828.31999969 485935.63000107 10.42000008
142828.04000092 485935.40999985 11.35000038
142827.69000053 485935.13000107 13.43000031
142827.48999977 485935.00000000 12.76000023
142827.54999924 485935.04999924 11.71000004
142836.68999863 485941.43000031 5.19000006
142835.43000031 485940.38999939 12.89000034
142835.59000015 485940.54999924 10.60999966
142835.22000122 485940.24000168 12.57999992
142835.33000183 485940.34999847 10.97999954
142835.15999985 485940.24000168 10.06000042
142835.47000122 485940.52999878 5.55999994
142834.43999863 485939.61000061 17.11000061
142834.40999985 485939.63000107 14.18999958
142833.93999863 485939.29000092 14.11999989
142834.11999893 485939.45999908 11.55000019
142834.40999985 485939.72999954 7.23000002
142833.95999908 485939.36000061 10.47000027
142833.45000076 485938.93000031 14.56999969
142833.52000046 485939.00000000 13.46000004
142833.15999985 485938.70999908 15.35999966
142833.33000183 485938.91999817 9.25000000
142833.11000061 485938.77000046 8.93000031
142832.47000122 485938.20999908 15.31000042
142832.63999939 485938.36999893 12.63000011
142832.29000092 485938.09999847 14.40999985
142831.73999977 485937.66999817 15.80000019
142831.88999939 485937.81999969 13.39000034
142832.18000031 485938.09999847 8.77999973
142832.31999969 485938.22999954 6.57000017
142831.70000076 485937.70000076 12.60000038
142831.94000053 485937.91999817 8.86999989
142831.14999962 485937.22000122 17.77000046
142831.28000069 485937.34999847 15.61999989
142830.94000053 485937.06999969 17.40999985
142831.51000023 485937.63000107 8.06999969
142830.76000023 485936.95000076 16.64999962
142831.48999977 485937.65999985 4.61000013
142831.37000084 485937.61000061 2.55999994
142831.47999954 485937.70999908 0.73000002
142830.52000046 485936.84000015 12.81999969
142831.04000092 485937.34000015 4.19999981
142830.32999992 485936.70999908 12.14999962
142830.67000008 485937.04000092 6.44000006
142830.86000061 485937.22999954 3.14000010
142829.93000031 485936.36999893 15.02999973
142830.10000038 485936.54999924 12.00000000
142830.36000061 485936.79000092 7.65000010
142830.62000084 485937.04999924 3.18000007
142829.87000084 485936.38000107 12.01000023
142830.20000076 485936.70000076 6.25000000
142830.38999939 485936.88000107 3.07999992
142830.15999985 485936.72000122 2.90000010
142829.92000008 485936.54999924 2.90000010
142829.35000038 485936.04999924 8.84000015
142829.68000031 485936.38000107 2.83999991
142829.13999939 485935.90000153 8.38000011
142829.20000076 485935.95999908 7.30000019
142828.55999947 485935.45999908 10.25000000
142828.28000069 485935.24000168 11.17000008
142827.97999954 485935.00999832 12.31000042
142827.69000053 485934.77999878 13.40999985
142827.65999985 485934.81000137 9.53999996
142836.77999878 485941.06000137 6.80000019
142836.70000076 485941.02999878 4.67999983
142836.50999832 485940.90999985 3.98000002
142835.00999832 485939.65000153 15.17000008
142835.68000031 485940.27000046 5.67000008
142834.65999985 485939.36999893 16.81999969
142834.52000046 485939.29000092 15.56999969
142834.58000183 485939.34000015 14.73999977
142834.90000153 485939.63999939 10.10999966
142834.18999863 485939.02999878 16.93000031
142834.38000107 485939.20000076 14.23999977
142834.16999817 485939.06000137 13.80000019
142834.27999878 485939.15999985 12.27000046
142834.63999939 485939.50000000 6.96000004
142834.09999847 485939.04000092 11.46000004
142833.61000061 485938.63000107 15.31000042
142834.29000092 485939.27999878 5.01999998
142833.34000015 485938.43000031 15.76000023
142833.09999847 485938.25000000 16.00000000
142834.13999939 485939.24000168 0.07000000
142833.29999924 485938.49000168 9.32999992
142833.06999969 485938.33000183 9.18000031
142832.54000092 485937.88000107 13.78999996
142832.11999893 485937.54000092 16.70999908
142831.68000031 485937.22000122 16.37000084
142832.20999908 485937.72000122 7.96999979
142831.53000069 485937.13000107 15.06999969
142831.75000000 485937.40000153 7.59999990
142831.00000000 485936.72999954 16.12999916
142830.88999939 485936.68000031 14.19999981
142831.48999977 485937.25999832 4.15000010
142830.61000061 485936.47000122 14.90999985
142830.65999985 485936.52000046 14.02999973
142830.37000084 485936.29000092 15.10000038
142830.97999954 485936.88000107 4.76999998
142831.04999924 485936.95999908 3.47000003
142830.20999908 485936.20000076 13.75000000
142830.57999992 485936.56000137 7.44000006
142829.95000076 485936.00000000 14.27000046
142830.62999916 485936.66999817 2.45000005
142829.81999969 485935.93000031 12.52999973
142829.57999992 485935.81999969 8.43000031
142829.63999939 485935.88000107 7.32000017
142829.31999969 485935.61999893 8.88000011
142828.77000046 485935.20000076 10.40999985
142828.51000023 485935.00000000 10.82999992
142828.12000084 485934.68000031 13.68000031
142827.70999908 485934.40000153 12.68000031
142827.54000092 485934.29999924 11.40999985
142837.04000092 485941.06999969 7.90999985
142837.04999924 485941.13000107 4.55999994
142836.38999939 485940.65999985 3.73000002
142835.29999924 485939.68000031 15.90999985
142835.09000015 485939.54000092 15.47999954
142835.18999863 485939.61999893 14.15999985
142835.45999908 485939.93999863 6.75000000
142835.54000092 485940.00999832 5.69000006
142834.77999878 485939.34000015 13.30000019
142835.22999954 485939.77000046 6.71999979
142834.56000137 485939.18999863 13.02000046
142834.77000046 485939.38000107 9.98999977
142834.29999924 485938.99000168 13.51000023
142834.15000153 485938.90000153 12.18999958
142833.63999939 485938.47000122 16.29000092
142833.93000031 485938.75000000 11.92000008
142833.97999954 485938.79000092 11.23999977
142833.54000092 485938.43000031 14.35999966
142833.81000137 485938.68999863 10.27999973
142833.90000153 485938.77000046 8.97000027
142834.09999847 485938.97000122 5.82000017
142833.15000153 485938.11000061 16.73999977
142833.31000137 485938.25999832 14.31999969
142833.00999832 485938.02999878 15.35000038
142833.25999832 485938.27000046 11.39000034
142833.90999985 485938.88999939 1.45000005
142832.77999878 485937.86999893 15.27000046
142832.95999908 485938.04000092 12.47999954
142832.90999985 485938.04000092 9.65999985
142832.25000000 485937.52000046 12.67000008
142832.91999817 485938.16999817 1.89999998
142832.36999893 485937.70000076 6.84000015
142832.06999969 485937.45999908 7.92999983
142831.29999924 485936.77000046 16.67000008
142831.76000023 485937.27000046 5.34999990
142832.02999878 485937.54000092 0.81999999
142831.12999916 485936.72999954 11.73999977
142831.59000015 485937.16999817 4.21999979
142830.77000046 485936.43000031 13.94999981
142830.37999916 485936.11000061 16.50000000
142830.62000084 485936.34999847 12.44999981
142830.98999977 485936.70000076 6.26999998
142830.23999977 485936.02999878 15.01000023
142830.69000053 485936.47000122 7.34999990
142830.17000008 485936.02000046 12.19999981
142829.48999977 485935.54000092 11.77000046
142829.73999977 485935.79000092 7.32999992
142829.37000084 485935.54000092 5.53999996
142828.75000000 485934.99000168 12.53999996
142828.60000038 485934.90999985 10.94999981
142828.23999977 485934.61000061 13.26000023
142828.35000038 485934.70999908 11.36999989
142828.07999992 485934.52000046 11.89999962
142827.87000084 485934.36999893 11.47000027
142827.62000084 485934.18000031 11.78999996
142827.46999931 485934.09999847 10.17000008
142827.19000053 485933.95999908 6.34000015
142826.68000031 485933.56999969 7.15000010
142826.75000000 485933.65000153 5.67999983
142837.15000153 485940.59999847 9.53999996
142836.84999847 485940.40999985 7.25000000
142835.72999954 485939.54999924 9.72000027
142836.16999817 485939.97000122 3.31999993
142835.50999832 485939.40000153 9.39000034
142835.88999939 485939.75000000 3.95000005
142834.91999817 485938.88999939 14.64999962
142835.52000046 485939.45999908 5.82999992
142834.54999924 485938.59999847 16.50000000
142835.22000122 485939.22000122 6.82999992
142834.56999969 485938.65999985 12.93000031
142834.99000168 485939.06000137 6.75000000
142834.29000092 485938.45999908 13.47000027
142834.81999969 485938.95000076 5.67000008
142833.79999924 485938.04000092 17.45999908
142834.33000183 485938.54999924 9.42000008
142834.11000061 485938.38999939 9.15999985
142834.34999847 485938.61999893 5.55999994
142833.29000092 485937.65999985 18.11000061
142833.61999893 485937.97000122 13.11999989
142833.75999832 485938.11000061 10.89000034
142833.36000061 485937.77999878 13.46000004
142833.59000015 485938.00000000 9.94999981
142834.24000168 485938.61999893 -0.02000000
142832.88000107 485937.38000107 17.29000092
142833.25000000 485937.72999954 11.57999992
142833.38999939 485937.86999893 9.35000038
142833.00999832 485937.56000137 11.68000031
142833.63000107 485938.15000153 1.95000005
142832.45000076 485937.06999969 16.81999969
142833.25000000 485937.88999939 0.40000001
142832.04000092 485936.79000092 15.86999989
142831.80999947 485936.63000107 15.84000015
142832.47000122 485937.25999832 5.19000006
142831.67000008 485936.54999924 14.36999989
142832.25000000 485937.09999847 5.00000000
142831.32999992 485936.27000046 16.17000008
142831.48999977 485936.41999817 13.60000038
142832.22000122 485937.13999939 1.45000005
142831.03000069 485936.04000092 17.36000061
142831.27000046 485936.27000046 13.39000034
142831.82999992 485936.81000137 4.07000017
142831.98999977 485936.97000122 1.38999999
142830.89999962 485935.97000122 15.65999985
142831.04000092 485936.09999847 13.30000019
142831.57999992 485936.63000107 4.15000010
142830.80999947 485935.93999863 13.21000004
142830.93000031 485936.04999924 11.22999954
142831.22999954 485936.34999847 6.15000010
142831.43000031 485936.54000092 2.76999998
142830.44000053 485935.63999939 15.52000046
142831.01000023 485936.20000076 5.71999979
142830.93000031 485936.18000031 3.09999990
142830.17000008 485935.54999924 8.07999992
142830.53000069 485935.90000153 1.78999996
142830.02000046 485935.47000122 6.55999994
142829.51000023 485935.02999878 11.38000011
142829.23999977 485934.81999969 12.09000015
142829.12000084 485934.75999832 10.06000042
142829.00000000 485934.70999908 7.86000013
142828.40999985 485934.25000000 10.09000015
142828.14999962 485934.04999924 10.65999985
142827.80999947 485933.77000046 12.68000031
142827.93000031 485933.90000153 10.27999973
142827.88999939 485933.91999817 6.57000017
142827.36000061 485933.52000046 7.71999979
142837.38999939 485940.40999985 10.25000000
142836.95999908 485940.11000061 9.63000011
142836.36999893 485939.70000076 8.07999992
142836.15000153 485939.54000092 7.84000015
142836.41999817 485939.79999924 3.88000011
142835.16999817 485938.72000122 15.14999962
142835.65999985 485939.18000031 8.06999969
142835.99000168 485939.50000000 3.19000006
142835.59999847 485939.18000031 5.40000010
142835.24000168 485938.88999939 7.32000017
142835.04000092 485938.75000000 6.76000023
142834.00999832 485937.83000183 18.57999992
142833.88000107 485937.75999832 16.98999977
142834.08000183 485938.00000000 10.46000004
142833.83000183 485937.83000183 10.56999969
142833.93999863 485937.93000031 8.93000031
142834.15999985 485938.13000107 5.67000008
142833.61999893 485937.68000031 10.26000023
142832.99000168 485937.13000107 16.30999947
142833.24000168 485937.36000061 12.52999973
142832.81000137 485937.00999832 15.56999969
142833.06999969 485937.25999832 11.43999958
142833.66999817 485937.83000183 2.11999989
142832.54999924 485936.81999969 16.06999969
142833.54000092 485937.77000046 0.34000000
142832.47999954 485936.79999924 13.42000008
142831.95999908 485936.36000061 17.98999977
142832.84999847 485937.20999908 3.75000000
142832.40000153 485936.84000015 7.13000011
142831.77000046 485936.27999878 13.67000008
142831.56999969 485936.15000153 13.02000046
142832.33000183 485936.88999939 0.49000001
142831.35000038 485935.99000168 12.84000015
142831.87999916 485936.50999832 3.93000007
142830.86000061 485935.56999969 17.20000076
142830.98999977 485935.70000076 14.98999977
142831.20999908 485935.91999817 11.22000027
142831.23999977 485936.00999832 6.73000002
142831.29999924 485936.06999969 5.67000008
142831.50000000 485936.25999832 2.34999990
142830.72999954 485935.56000137 11.50000000
142831.04000092 485935.86999893 6.09000015
142830.27000046 485935.18000031 15.27000046
142830.77000046 485935.66999817 6.67000008
142830.45999908 485935.41999817 7.94999981
142830.54000092 485935.50000000 6.61000013
142829.80999947 485934.90000153 11.25000000
142829.59000015 485934.74000168 10.97999954
142829.25000000 485934.47999954 12.73999977
142829.43000031 485934.65000153 9.53999996
142829.09000015 485934.38000107 11.48999977
142829.19000053 485934.47999954 9.55000019
142829.29000092 485934.58000183 7.78000021
142828.95999908 485934.31000137 9.56000042
142829.04999924 485934.40000153 7.94000006
142828.57999992 485934.00000000 12.22000027
142828.79999924 485934.22000122 8.18000031
142828.43000031 485933.90999985 10.73999977
142828.56999969 485934.04999924 8.02000046
142828.23999977 485933.77999878 9.89999962
142827.84000015 485933.45000076 13.00000000
142827.62000084 485933.29999924 12.75000000
142827.68000031 485933.41999817 7.03999996
142827.52000046 485933.33000183 5.57000017
142827.30999947 485933.18999863 4.88000011
142838.00999832 485940.41999817 9.39000034
142837.43000031 485939.97000122 10.93999958
142837.09999847 485939.75999832 9.02000046
142836.99000168 485939.70999908 7.19999981
142836.75000000 485939.52999878 7.19999981
142836.52000046 485939.36000061 7.15999985
142836.27999878 485939.18000031 7.19000006
142836.65999985 485939.54000092 1.71000004
142835.45999908 485938.47999954 15.46000004
142835.56999969 485938.58000183 13.89000034
142835.27000046 485938.34000015 15.02999973
142835.25999832 485938.43999863 8.13000011
142835.40000153 485938.56000137 6.15999985
142834.68999863 485937.95000076 13.17000008
142835.13000107 485938.36000061 6.69999981
142834.15000153 485937.49000168 17.76000023
142835.00999832 485938.29999924 4.88000011
142835.27000046 485938.54999924 0.93000001
142834.08000183 485937.47000122 15.31999969
142833.72999954 485937.18999863 17.11000061
142834.77000046 485938.18000031 1.26999998
142833.74000168 485937.25000000 13.43999958
142833.86000061 485937.36999893 11.51000023
142833.20999908 485936.81000137 17.93000031
142833.74000168 485937.31000137 9.81999969
142834.00000000 485937.54999924 5.78000021
142833.18000031 485936.83000183 14.81999969
142833.52999878 485937.16999817 9.32999992
142833.16999817 485936.86999893 11.35000038
142833.50999832 485937.25000000 2.27999997
142833.63000107 485937.36000061 0.38000000
142832.24000168 485936.09000015 18.70000076
142832.02999878 485935.93999863 18.45999908
142832.52999878 485936.47999954 6.57000017
142831.80999947 485935.84999847 14.38000011
142831.92000008 485935.95000076 12.68000031
142831.45999908 485935.56000137 16.44000053
142831.70000076 485935.79000092 12.39000034
142832.40000153 485936.47000122 0.77999997
142831.15999985 485935.33000183 17.48999977
142831.59000015 485935.81000137 6.28999996
142831.84000015 485936.04000092 2.20000005
142831.45000076 485935.72000122 4.78000021
142830.80999947 485935.22000122 7.51000023
142829.72999954 485934.40000153 10.01000023
142829.87000084 485934.54000092 7.42000008
142829.50000000 485934.22999954 9.97999954
142829.63999939 485934.36999893 7.42999983
142829.00000000 485933.86999893 10.40999985
142828.75000000 485933.68000031 10.72999954
142828.71999931 485933.72000122 6.82000017
142828.47999954 485933.54000092 7.05000019
142828.53000069 485933.59999847 5.92000008
142828.21999931 485933.34999847 7.34999990
142828.31999969 485933.45000076 5.36000013
142827.73999977 485932.93000031 12.22999954
142828.00000000 485933.18999863 7.17000008
142828.07999992 485933.27000046 5.55999994
142827.82999992 485933.09000015 5.78999996
142827.59000015 485932.90999985 5.86000013
142827.40999985 485932.79999924 4.59000015
142837.91999817 485940.20999908 8.39999962
142838.00999832 485940.29000092 7.25000000
142837.70000076 485940.04999924 8.25000000
142837.77999878 485940.11999893 7.21000004
142837.54999924 485939.95999908 7.03999996
142837.18999863 485939.66999817 8.69999981
142837.29999924 485939.77999878 7.17999983
142836.47000122 485939.09000015 12.18999958
142836.75999832 485939.36000061 8.14999962
142836.95999908 485939.59999847 1.97000003
142836.31999969 485939.04999924 7.63000011
142836.72000122 485939.43000031 1.90999997
142835.65000153 485938.45999908 14.00000000
142836.13000107 485938.91999817 7.01000023
142835.81000137 485938.66999817 8.21000004
142835.90000153 485938.75999832 6.84999990
142836.06999969 485938.91999817 4.32000017
142835.04000092 485937.99000168 16.07999992
142835.90999985 485938.81999969 3.25000000
142835.34000015 485938.33000183 8.19999981
142835.22999954 485938.27999878 6.19999981
142835.61000061 485938.63999939 0.67000002
142834.54000092 485937.68000031 12.98999977
142834.95999908 485938.08000183 6.73999977
142834.15999985 485937.41999817 11.77000046
142834.84000015 485938.06999969 1.36000001
142833.59000015 485936.93000031 16.94000053
142833.65999985 485937.00000000 15.77999973
142834.56999969 485937.86999893 1.77999997
142833.34000015 485936.75000000 17.12000084
142833.58000183 485936.97999954 13.43999958
142834.06999969 485937.45000076 5.86999989
142833.25000000 485936.70999908 15.02000046
142833.31000137 485936.77000046 14.09000015
142833.25999832 485936.77999878 11.18000031
142833.40000153 485936.90999985 8.90999985
142833.58000183 485937.13999939 2.32999992
142832.20000076 485935.93000031 16.93000031
142832.61000061 485936.38000107 6.42999983
142831.92000008 485935.77000046 13.92000008
142832.00999832 485935.86000061 12.34000015
142831.52000046 485935.43999863 16.64999962
142831.87000084 485935.77999878 10.77000046
142832.47000122 485936.36999893 0.81999999
142831.21999931 485935.20999908 17.73999977
142831.36000061 485935.40000153 11.47000027
142831.79000092 485935.81999969 4.28999996
142831.85000038 485935.88000107 3.26999998
142831.90999985 485935.93999863 2.11999989
142830.88999939 485935.00000000 15.56000042
142831.12999916 485935.22999954 11.46000004
142830.55999947 485934.72999954 17.27000046
142830.72999954 485934.90999985 14.21000004
142830.37999916 485934.61999893 16.35000038
142830.38999939 485934.75000000 7.92999983
142830.07999992 485934.50999832 9.27000046
142829.71999931 485934.22000122 11.46000004
142829.77000046 485934.25999832 10.61999989
142829.79999924 485934.29999924 9.98999977
142829.56999969 485934.11999893 10.02000046
142829.85000038 485934.40000153 4.96000004
142829.30999947 485933.93000031 10.40999985
142829.05999947 485933.74000168 10.82999992
142828.77000046 485933.52000046 11.85000038
142828.84000015 485933.59000015 10.51000023
142828.82999992 485933.65000153 6.17999983
142828.87999916 485933.70000076 5.28000021
142828.64999962 485933.52999878 5.19999981
142828.45999908 485933.40999985 4.19000006
142827.80999947 485932.81999969 12.34000015
142828.22999954 485933.24000168 4.13000011
142827.92000008 485933.00000000 5.55000019
142827.73999977 485932.88999939 4.32000017
142838.27999878 485939.95999908 10.43000031
142838.11000061 485939.84999847 9.60000038
142837.72999954 485939.59000015 8.34000015
142837.11999893 485939.08000183 13.43999958
142837.25000000 485939.25000000 8.36999989
142836.72000122 485938.79000092 12.47000027
142836.97999954 485939.02999878 8.85000038
142837.24000168 485939.27000046 5.21000004
142836.54999924 485938.66999817 11.71000004
142836.81999969 485938.93000031 7.80999994
142836.59999847 485938.77000046 7.55999994
142836.97999954 485939.13000107 2.05999994
142836.36999893 485938.61000061 7.51000023
142836.13999939 485938.45000076 7.36000013
142835.90999985 485938.27999878 7.28999996
142836.09999847 485938.45999908 4.50000000
142835.68000031 485938.11000061 7.19999981
142834.88999939 485937.41999817 15.42000008
142835.47999954 485937.97999954 6.55999994
142835.91999817 485938.38999939 0.12000000
142834.52000046 485937.13000107 17.37000084
142834.65999985 485937.25000000 15.38000011
142835.25999832 485937.81999969 6.36999989
142835.02999878 485937.65999985 6.17000008
142834.04999924 485936.77999878 17.61000061
142833.77999878 485936.56999969 18.17000008
142833.95000076 485936.74000168 15.50000000
142833.65999985 485936.52000046 16.37000084
142833.77000046 485936.61999893 14.69999981
142833.97000122 485936.81000137 11.61999989
142833.40999985 485936.33000183 16.64999962
142833.54999924 485936.45999908 14.56999969
142833.15999985 485936.15000153 17.00000000
142833.36999893 485936.34999847 13.68000031
142832.99000168 485936.02999878 16.02000046
142833.09999847 485936.20000076 10.47000027
142833.25000000 485936.34000015 8.06000042
142832.54999924 485935.72000122 15.67000008
142833.36000061 485936.50999832 2.50000000
142833.13000107 485936.33000183 2.50000000
142831.93000031 485935.24000168 18.18000031
142832.11000061 485935.40999985 15.14000034
142832.00999832 485935.36999893 13.03999996
142832.16999817 485935.52000046 10.47000027
142832.74000168 485936.08000183 0.95999998
142831.75000000 485935.18000031 13.38000011
142832.36000061 485935.77000046 3.22000003
142831.31999969 485934.81000137 16.86000061
142831.38999939 485934.88000107 15.61999989
142831.51000023 485935.00000000 13.63000011
142832.20999908 485935.68000031 1.88000000
142831.12999916 485934.68999863 16.09000015
142831.98999977 485935.52999878 1.34000003
142830.77000046 485934.38999939 18.29000092
142831.40999985 485935.02999878 7.17999983
142830.77000046 485934.45000076 14.26000023
142831.17000008 485934.84999847 7.30000019
142830.50000000 485934.24000168 15.02000046
142830.28000069 485934.09000015 14.68999958
142830.63999939 485934.45000076 8.35000038
142830.03000069 485933.90999985 14.97999954
142830.39999962 485934.27000046 8.46000004
142829.54999924 485933.56000137 15.31000042
142829.67000008 485933.66999817 13.15999985
142829.86000061 485933.86999893 9.57999992
142830.13999939 485934.13999939 4.63999987
142829.37000084 485933.43999863 14.40999985
142829.90999985 485933.97000122 4.51000023
142829.67000008 485933.79999924 4.46999979
142828.77000046 485933.02999878 12.55000019
142828.82999992 485933.09999847 11.31999969
142829.17000008 485933.43000031 4.94000006
142828.54000092 485932.86000061 12.47000027
142828.62000084 485932.93999863 10.97999954
142828.12000084 485932.63999939 7.00000000
142827.67000008 485932.33000183 6.44000006
142838.15000153 485939.56000137 9.60999966
142838.22999954 485939.63000107 8.51000023
142837.61000061 485939.09999847 13.85000038
142837.16999817 485938.77999878 13.35999966
142837.31000137 485938.95000076 8.22000027
142836.83000183 485938.56000137 11.65999985
142837.09000015 485938.79999924 7.92000008
142836.54000092 485938.34000015 12.43999958
142836.59999847 485938.40000153 11.47999954
142837.02999878 485938.79000092 5.48000002
142836.15000153 485938.13000107 7.80000019
142836.45000076 485938.40999985 3.43000007
142835.50000000 485937.56999969 13.84000015
142836.22000122 485938.24000168 3.39000010
142835.27999878 485937.40999985 13.69999981
142835.75999832 485937.86000061 6.61999989
142835.97999954 485938.06999969 3.28999996
142835.04999924 485937.24000168 13.63000011
142835.52000046 485937.68000031 6.67000008
142834.83000183 485937.09000015 13.39000034
142834.25999832 485936.59000015 18.62999916
142834.50999832 485936.84000015 14.73999977
142834.61000061 485936.93000031 13.21000004
142834.04999924 485936.45000076 18.27000046
142834.38999939 485936.77000046 13.02000046
142835.15000153 485937.50000000 1.33000004
142834.18000031 485936.61999893 12.76000023
142834.61999893 485937.04000092 5.98000002
142833.56999969 485936.09000015 18.55999947
142833.66999817 485936.24000168 13.35000038
142833.74000168 485936.31000137 12.22000027
142833.47999954 485936.11999893 12.68999958
142833.31999969 485936.02000046 11.47000027
142833.15999985 485935.93000031 10.19999981
142833.63999939 485936.38999939 2.45000005
142832.38000107 485935.22999954 18.98999977
142833.08000183 485935.90999985 7.65000010
142832.18999863 485935.09999847 18.39999962
142832.75999832 485935.65000153 9.15999985
142833.16999817 485936.04999924 2.36999989
142832.43999863 485935.40000153 10.47999954
142831.80999947 485934.84999847 17.04999924
142831.92000008 485934.95999908 15.18999958
142832.77000046 485935.77999878 1.02999997
142831.55999947 485934.65000153 17.47999954
142832.27000046 485935.34999847 5.51000023
142831.40999985 485934.56999969 16.10000038
142832.25999832 485935.40000153 1.63999999
142831.07999992 485934.31000137 17.62999916
142831.20999908 485934.43999863 15.43999958
142831.70999908 485934.91999817 6.88000011
142831.48999977 485934.75999832 6.71000004
142831.17000008 485934.50999832 8.15999985
142831.21999931 485934.56000137 7.21000004
142830.37000084 485933.84999847 13.81000042
142830.69000053 485934.16999817 8.13000011
142830.20999908 485933.75000000 12.65999985
142830.45000076 485933.99000168 8.26000023
142830.69000053 485934.22000122 4.07999992
142829.87999916 485933.49000168 14.31000042
142829.65999985 485933.33000183 14.09000015
142829.65999985 485933.38999939 9.86999989
142829.97999954 485933.72000122 3.84999990
142829.47999954 485933.27999878 8.81000042
142829.64999962 485933.45000076 5.53999996
142829.73999977 485933.54000092 3.90000010
142829.15999985 485933.02999878 10.36999989
142829.47999954 485933.34000015 4.40999985
142828.62000084 485932.61000061 11.72999954
142828.45999908 485932.59000015 5.69000006
142838.25999832 485939.13000107 12.72000027
142837.79999924 485938.75000000 15.81999969
142838.06999969 485939.00000000 12.14999962
142837.59999847 485938.61999893 15.35000038
142837.70999908 485938.72000122 13.85000038
142837.31999969 485938.38999939 16.02000046
142837.54999924 485938.61000061 12.81999969
142837.31999969 485938.43999863 12.77999973
142837.22000122 485938.40000153 10.89999962
142837.70000076 485938.88999939 0.82999998
142836.72000122 485938.02999878 11.31999969
142837.11999893 485938.40000153 5.53999996
142836.81000137 485938.16999817 6.61000013
142835.81999969 485937.29000092 17.53000069
142836.38999939 485937.86999893 5.90000010
142836.43999863 485937.91999817 5.09000015
142835.34999847 485936.93999863 17.62000084
142835.47000122 485937.06000137 15.85999966
142835.29000092 485936.93999863 15.02000046
142835.90000153 485937.50999832 6.11999989
142835.20000076 485936.90999985 12.93999958
142835.68999863 485937.36999893 5.61000013
142835.86000061 485937.52000046 3.15000010
142834.97000122 485936.74000168 12.89000034
142834.72999954 485936.56999969 12.90999985
142833.70000076 485935.79000092 14.52999973
142834.50000000 485936.56000137 1.95000005
142833.43999863 485935.59999847 15.01000023
142834.15999985 485936.29000092 3.50000000
142833.68999863 485935.88999939 7.23999977
142833.81999969 485936.02000046 5.05000019
142832.74000168 485935.04000092 18.73999977
142833.59999847 485935.86999893 4.80000019
142832.63999939 485935.00000000 16.55999947
142832.75999832 485935.11000061 14.65999985
142833.08000183 485935.41999817 9.43999958
142833.38000107 485935.70999908 4.53999996
142832.84999847 485935.25999832 9.27999973
142832.08000183 485934.56999969 18.20000076
142832.77999878 485935.25000000 6.55000019
142832.84999847 485935.31999969 5.36000013
142832.63000107 485935.15000153 5.17999983
142831.70000076 485934.31000137 16.84000015
142832.04000092 485934.65000153 11.02999973
142832.34999847 485934.93999863 5.94000006
142832.09000015 485934.75000000 6.15000010
142832.34000015 485934.99000168 1.98000002
142831.19000053 485933.93000031 17.61000061
142832.04000092 485934.75999832 2.94000006
142830.98999977 485933.79999924 17.05999947
142831.20000076 485934.00000000 13.38000011
142831.79999924 485934.59000015 2.99000001
142830.97999954 485933.84000015 13.26000023
142831.55999947 485934.40999985 3.14000010
142830.79000092 485933.72000122 12.42000008
142830.86000061 485933.79000092 11.15999985
142830.55999947 485933.54999924 12.38000011
142830.17000008 485933.22999954 15.15999985
142829.95000076 485933.06999969 15.06000042
142829.89999962 485933.08000183 11.71000004
142830.07999992 485933.27000046 8.27999973
142830.23999977 485933.43000031 5.32999992
142829.53000069 485932.77999878 14.14999962
142829.76000023 485933.00999832 9.80000019
142829.80999947 485933.06000137 8.96000004
142829.29999924 485932.61999893 14.06000042
142829.55999947 485932.86999893 9.23999977
142829.05999947 485932.50000000 9.88000011
142829.12000084 485932.56000137 8.68000031
142828.53000069 485932.16999817 6.36000013
142828.18000031 485931.87999916 8.68000031
142828.32999992 485932.02999878 5.71000004
142838.68999863 485939.20999908 12.28999996
142838.25000000 485938.84999847 15.06999969
142838.04999924 485938.72000122 14.50000000
142838.25999832 485938.90999985 11.72999954
142838.02999878 485938.75000000 11.61999989
142837.50999832 485938.29999924 15.64000034
142838.29000092 485939.09000015 1.45000005
142837.20999908 485938.11999893 13.23999977
142837.50999832 485938.45000076 5.63000011
142837.84000015 485938.75999832 0.95999998
142836.86999893 485937.90000153 11.40999985
142837.41999817 485938.40999985 3.59999990
142837.18000031 485938.24000168 3.53999996
142837.36999893 485938.41999817 0.81999999
142836.02000046 485937.20000076 16.97999954
142835.79999924 485937.04000092 16.79999924
142835.90000153 485937.18999863 11.94999981
142836.27999878 485937.54999924 6.23999977
142836.36999893 485937.63000107 4.98000002
142835.68999863 485937.04999924 11.47999954
142836.11999893 485937.43999863 5.21999979
142835.22000122 485936.65000153 15.02999973
142835.36999893 485936.79000092 12.77000046
142835.86000061 485937.25999832 5.44999981
142835.02000046 485936.50999832 14.60999966
142835.45000076 485936.91999817 8.13000011
142835.61999893 485937.08000183 5.57999992
142835.77999878 485937.22999954 3.11999989
142834.90999985 485936.45999908 12.67000008
142835.54000092 485937.06000137 3.10999990
142834.58000183 485936.20000076 14.15999985
142835.20000076 485936.84000015 1.07000005
142834.93000031 485936.63999939 1.44000006
142834.06999969 485935.86999893 11.22000027
142834.63000107 485936.40999985 2.33999991
142834.09000015 485935.95000076 7.15000010
142834.29000092 485936.13999939 3.97000003
142834.40999985 485936.25999832 2.04999995
142833.11999893 485935.08000183 18.77000046
142834.06000137 485935.97000122 3.85999990
142833.86000061 485935.84000015 3.22000003
142833.97000122 485935.93999863 1.44000006
142832.75999832 485934.84000015 17.20999908
142833.27999878 485935.34000015 8.80000019
142832.56999969 485934.70999908 16.45000076
142833.04999924 485935.18000031 8.57999992
142832.47000122 485934.66999817 14.31999969
142832.81999969 485935.00999832 8.55000019
142832.27999878 485934.54000092 13.64999962
142832.54000092 485934.79000092 9.31999969
142832.75999832 485935.00999832 5.59000015
142831.82999992 485934.15999985 17.36000061
142832.22000122 485934.54000092 10.72999954
142832.31999969 485934.63999939 9.02999973
142832.70000076 485935.00999832 2.61999989
142832.77000046 485935.08000183 1.42999995
142832.06999969 485934.45999908 9.21000004
142832.45000076 485934.81999969 2.78999996
142831.62999916 485934.08000183 12.76000023
142831.76000023 485934.20999908 10.60999966
142832.20999908 485934.65000153 2.81999993
142831.51000023 485934.02000046 10.85000038
142831.57999992 485934.09999847 9.53999996
142830.95999908 485933.54000092 16.31999969
142831.26000023 485933.84000015 11.00000000
142831.35000038 485933.91999817 9.57999992
142831.01000023 485933.65999985 11.34000015
142831.11000061 485933.75000000 9.68999958
142830.61000061 485933.31999969 14.36999989
142830.87000084 485933.56999969 9.75000000
142831.29999924 485934.00999832 1.98000002
142830.56999969 485933.34000015 10.89000034
142830.62999916 485933.40000153 9.84000015
142830.22999954 485933.13000107 8.47000027
142829.70000076 485932.66999817 13.98999977
142829.72999954 485932.75999832 9.05000019
142829.53000069 485932.61999893 8.42000008
142829.32999992 485932.49000168 7.71999979
142828.48999977 485931.90999985 5.61999989
142828.10000038 485931.57999992 8.77000046
142828.26000023 485931.75000000 5.53999996
142827.73999977 485931.35000038 6.51000023
142839.16999817 485939.20999908 5.34999990
142838.18000031 485938.34000015 15.56000042
142837.86000061 485938.09999847 16.62999916
142837.72999954 485938.00999832 15.26000023
142837.56000137 485937.90000153 14.34000015
142837.65000153 485937.97999954 13.18999958
142837.61000061 485937.99000168 10.52000046
142837.40999985 485937.84999847 10.00000000
142837.83000183 485938.25000000 3.99000001
142837.15999985 485937.68000031 10.05000019
142837.79999924 485938.27000046 1.05999994
142836.70000076 485937.34000015 10.00000000
142835.86000061 485936.61000061 18.73999977
142836.16999817 485936.88999939 14.31000042
142836.54999924 485937.25000000 8.71000004
142836.90999985 485937.59000015 3.48000002
142835.95000076 485936.74000168 14.06000042
142836.68000031 485937.41999817 3.36999989
142835.47000122 485936.34000015 17.65999985
142836.43999863 485937.25000000 3.34999990
142836.61000061 485937.40999985 0.75999999
142835.50000000 485936.41999817 13.77999973
142835.66999817 485936.58000183 11.25000000
142835.43000031 485936.40000153 11.30000019
142835.75999832 485936.70999908 6.38000011
142836.04999924 485936.99000168 2.00999999
142834.88999939 485935.93999863 16.04000092
142834.54000092 485935.66999817 17.70999908
142835.34999847 485936.43000031 5.40999985
142834.59000015 485935.75999832 13.44999981
142834.66999817 485935.84000015 12.18000031
142835.02000046 485936.16999817 6.84999990
142835.11999893 485936.27000046 5.23000002
142834.90999985 485936.11999893 4.90000010
142834.34000015 485935.63000107 10.10999966
142834.52000046 485935.79999924 7.21999979
142834.68000031 485935.95999908 4.65000010
142834.06000137 485935.41999817 10.68999958
142833.88000107 485935.29999924 9.88000011
142834.25000000 485935.65000153 4.03999996
142833.90000153 485935.38000107 5.76999998
142834.02999878 485935.50000000 3.73000002
142833.81000137 485935.34000015 3.40000010
142832.75000000 485934.38000107 16.79000092
142833.59000015 485935.18999863 3.01999998
142832.97999954 485934.65999985 9.25000000
142833.13000107 485934.79999924 6.80000019
142833.20999908 485934.88000107 5.46999979
142832.52999878 485934.27999878 12.78999996
142833.04000092 485934.77999878 4.23000002
142831.95000076 485933.77999878 18.54000092
142832.27000046 485934.09000015 13.22999954
142832.88999939 485934.68999863 2.74000001
142832.13999939 485934.02000046 11.44999981
142832.70999908 485934.56999969 1.75999999
142832.86999893 485934.72999954 -0.92000002
142831.87000084 485933.81000137 12.06000042
142831.37000084 485933.38999939 16.64999962
142831.60000038 485933.61000061 12.77000046
142831.14999962 485933.22999954 16.45000076
142831.14999962 485933.29000092 12.39999962
142830.72999954 485932.93000031 15.75000000
142830.89999962 485933.09999847 12.78999996
142830.52000046 485932.77999878 15.38000011
142830.64999962 485932.91999817 12.96000004
142830.31999969 485932.65000153 14.69999981
142830.18000031 485932.56999969 13.14000034
142830.34000015 485932.74000168 10.07999992
142829.92000008 485932.38000107 13.55000019
142830.20000076 485932.65000153 8.40999985
142829.65999985 485932.18999863 13.93999958
142829.88999939 485932.41999817 9.64000034
142829.73999977 485932.33000183 8.17000008
142829.30999947 485931.95999908 11.89000034
142829.53000069 485932.18000031 7.71000004
142829.02000046 485931.80999947 8.35000038
142828.71999931 485931.55999947 9.73999977
142828.79000092 485931.62999916 8.35000038
142828.46999931 485931.37999916 9.93999958
142828.21999931 485931.20000076 10.27999973
142828.48999977 485931.46999931 4.94000006
142828.20000076 485931.23999977 5.94000006
142826.93000031 485930.29000092 7.82000017
142838.81000137 485938.52999878 13.31999969
142838.59999847 485938.38999939 12.89000034
142838.09999847 485937.97000122 16.61000061
142837.95999908 485937.88000107 15.23999977
142837.79000092 485937.75999832 14.48999977
142838.50000000 485938.41999817 4.63000011
142837.56000137 485937.59999847 14.39000034
142837.63000107 485937.66999817 13.39000034
142838.06000137 485938.11000061 4.09999990
142837.83000183 485937.95000076 3.88000011
142837.16999817 485937.38000107 9.92000008
142837.61000061 485937.79000092 3.69000006
142836.36000061 485936.66999817 18.31999969
142836.95000076 485937.22999954 9.71000004
142837.38000107 485937.63000107 3.52999997
142836.18999863 485936.56000137 17.42000008
142836.72999954 485937.06999969 9.56999969
142837.13999939 485937.45999908 3.49000001
142836.22999954 485936.65000153 13.40999985
142836.54000092 485936.95000076 8.77999973
142837.04000092 485937.40999985 1.51999998
142835.77999878 485936.27000046 16.63999939
142836.33000183 485936.79999924 8.39000034
142836.50000000 485936.95000076 5.98999977
142835.59999847 485936.15999985 15.82999992
142836.15999985 485936.68999863 7.46000004
142835.20000076 485935.83000183 18.35000038
142835.52000046 485936.13999939 13.43999958
142835.95000076 485936.54000092 7.01999998
142834.91999817 485935.61999893 19.02000046
142835.20999908 485935.90000153 14.63000011
142835.29999924 485935.97999954 13.27999973
142835.75000000 485936.40999985 6.48999977
142834.84000015 485935.59000015 16.80999947
142835.02000046 485935.75999832 14.09000015
142835.08000183 485935.81999969 13.07999992
142835.54999924 485936.25999832 6.00000000
142834.65000153 485935.47000122 16.12999916
142834.84000015 485935.65000153 13.14000034
142835.00000000 485935.79999924 10.78999996
142834.36000061 485935.24000168 17.01000023
142834.56000137 485935.43000031 13.96000004
142834.77999878 485935.63999939 10.57999992
142834.06000137 485935.00999832 18.12000084
142834.41999817 485935.34999847 12.46000004
142834.25000000 485935.24000168 11.47000027
142833.47000122 485934.70999908 8.93999958
142833.81999969 485935.04999924 3.21000004
142832.63000107 485933.95999908 18.85000038
142833.22999954 485934.54000092 8.93999958
142833.33000183 485934.63999939 7.32000017
142832.50999832 485933.90000153 17.00000000
142832.75000000 485934.13000107 13.02999973
142833.29999924 485934.66999817 3.85999990
142832.93000031 485934.36999893 6.03999996
142833.00999832 485934.45000076 4.65000010
142831.96999931 485933.50000000 18.20999908
142832.93999863 485934.43999863 1.87000000
142831.78000069 485933.36999893 17.52000046
142831.87999916 485933.45999908 15.84000015
142832.68000031 485934.25000000 2.09999990
142831.52000046 485933.16999817 18.11000061
142831.61000061 485933.31999969 12.47000027
142831.29000092 485933.06000137 14.09000015
142831.17000008 485933.00999832 11.98999977
142830.72999954 485932.63000107 15.77000046
142830.81999969 485932.72000122 14.13000011
142830.54999924 485932.52000046 14.75000000
142830.45999908 485932.49000168 12.14999962
142830.40999985 485932.50999832 8.72000027
142829.90999985 485932.13000107 9.35999966
142829.54999924 485931.84000015 11.72999954
142829.23999977 485931.59000015 13.22999954
142829.19000053 485931.61000061 9.52000046
142829.27000046 485931.68000031 8.14000034
142828.57999992 485931.12000084 12.43000031
142828.93000031 485931.47999954 5.48000002
142828.68000031 485931.29999924 5.69000006
142828.36000061 485931.04000092 7.30000019
142827.92000008 485930.65999985 11.59000015
142827.94000053 485930.75000000 6.30000019
142827.62000084 485930.48999977 8.02999973
142827.71999931 485930.59000015 6.05999994
142827.37999916 485930.31999969 8.11999989
142827.20999908 485930.20999908 6.76000023
142839.47000122 485938.56000137 11.72000027
142839.25000000 485938.40000153 11.48999977
142839.58000183 485938.70999908 7.07999992
142839.06999969 485938.29000092 10.73999977
142838.58000183 485937.91999817 11.06000042
142838.65999985 485938.00000000 9.92000008
142838.11000061 485937.52999878 14.23999977
142838.45000076 485937.84000015 9.53999996
142837.79999924 485937.29000092 15.31999969
