142826.79000092 485929.12700081 14.63300037
142827.01399994 485929.00000000 8.47000027
142827.04199982 485928.98399925 7.68400002
142826.81399918 485928.85000038 14.33800030
142827.04299927 485928.48600006 8.36499977
142826.90800095 485928.32399940 12.42099953
142827.05900002 485928.23600006 8.26500034
142826.87599945 485928.05500031 13.67700005
142826.74799919 485927.86100006 17.59000015
142827.12599945 485927.63400078 7.18100023
142826.91099930 485927.53899956 13.39999962
142826.97400093 485927.50099945 11.67599964
142827.12100029 485927.41200066 7.62500000
142826.86100006 485927.31399918 15.14900017
142826.92900085 485927.27199936 13.25899982
142827.11899948 485927.15699959 8.05399990
142826.88699913 485927.03499985 14.80399990
142826.99500084 485926.96899986 11.83300018
142827.13599968 485926.88100052 7.93200016
142826.88699913 485926.76399994 15.15600014
142827.00099945 485926.69300079 12.02900028
142826.91099930 485926.51799965 14.82600021
142827.19400024 485926.34099960 7.04400015
142827.08399963 485925.86599922 10.81999969
142827.23299980 485925.77099991 6.73899984
142827.02000046 485925.63500023 12.94900036
142827.19700050 485925.52099991 8.08300018
142827.07699966 485925.35099983 11.73600006
142827.20299911 485925.26899910 8.27799988
142827.20999908 485925.00099945 8.45300007
142827.21999931 485924.69899940 8.58600044
142826.73500061 485939.91400146 10.46100044
142826.89800072 485939.86199951 5.94600010
142826.88899994 485939.60499954 6.56500006
142826.85899925 485939.36299896 7.76300001
142826.88599968 485939.10100174 7.35699987
142826.83399963 485938.57500076 9.52700043
142826.79400063 485938.34600067 10.96000004
142826.83399963 485938.10499954 10.18000031
142826.96599960 485937.48799896 7.28499985
142826.99399948 485936.71500015 7.56799984
142827.06599998 485936.39500046 5.97700024
142827.02700043 485935.93999863 7.69299984
142826.74300003 485935.25400162 16.65299988
142826.84799957 485935.20899963 13.78199959
142826.77199936 485934.99300003 16.22200012
142826.87199974 485934.94900131 13.46500015
142826.79100037 485934.73500061 16.01600075
142826.89100075 485934.69100189 13.29599953
142826.93099976 485934.14199829 12.91800022
142826.87999916 485933.93999863 14.63799953
142826.82399940 485933.71699905 16.49500084
142826.92300034 485933.38100052 14.15499973
142827.02700043 485933.33300018 11.30599976
142826.83799934 485933.17399979 16.86300087
142826.90500069 485933.14199829 15.00699997
142826.85499954 485932.92599869 16.72100067
142827.23500061 485932.74100113 6.25299978
142826.87700081 485932.64199829 16.48600006
142827.03100014 485932.56600189 12.24600029
142826.88599968 485932.37400055 16.60899925
142826.92300034 485932.09099960 15.94799995
142827.23500061 485931.93400002 7.34000015
142827.05100060 485931.51199913 13.12699986
142827.21800041 485930.89599991 9.28499985
142826.99200058 485930.50300026 16.18300056
142827.00699997 485930.23900032 16.12599945
142827.05699921 485929.70800018 15.44099998
142827.05900002 485929.45100021 15.73900032
142827.30200005 485929.31399918 9.04500008
142827.36199951 485929.28100014 7.42799997
142827.01099968 485928.95999908 17.76799965
142827.14900017 485928.87999916 13.97200012
142827.36100006 485928.75900078 8.14599991
142827.16200066 485928.61700058 13.98400021
142826.98999977 485928.46400070 19.07799911
142827.18700027 485928.34700012 13.65499973
142827.42200089 485928.20999908 7.19700003
142827.02499962 485928.16500092 18.47400093
142827.42900085 485927.92399979 7.37200022
142827.24799919 485927.52700043 13.04599953
142827.48999977 485927.38199997 6.39300013
142827.15200043 485927.30800056 16.09000015
142827.20999908 485927.27099991 14.47099972
142827.50600052 485927.09099960 6.34100008
142827.22699928 485926.98100090 14.39099979
142827.50200081 485926.81200027 6.84800005
142827.28499985 485926.69099998 13.16100025
142827.35799980 485926.64500046 11.15400028
142827.25200081 485926.47999954 14.38399982
142827.29400063 485926.45400047 13.23499966
142827.37000084 485926.40600014 11.13300037
142827.30400085 485926.18400002 13.31900024
142827.50499916 485926.05699921 7.79899979
142827.50799942 485925.79899979 8.08600044
142827.51000023 485925.56599998 8.36100006
142827.37800026 485925.42700005 12.29100037
142827.58099937 485925.29599953 6.72200012
142827.38899994 485925.14800072 12.33600044
142827.39500046 485924.88100052 12.53999996
142827.56299973 485924.53100014 8.27400017
142826.91799927 485940.86199951 10.85400009
142826.92900085 485940.11100006 11.53699970
142827.14999962 485940.04100037 5.42000008
142826.94300079 485939.81499863 11.55200005
142826.99300003 485939.52299881 10.54100037
142827.13500023 485939.22399902 6.96600008
142827.13199997 485938.98099899 7.39900017
142827.14500046 485938.67599869 7.44099998
142827.00000000 485938.49200058 11.77600002
142827.05500031 485938.47200012 10.23600006
142827.15099907 485938.43799973 7.56400013
142827.08200073 485938.22700119 9.81599998
142827.02199936 485938.00600052 11.82999992
142827.09799957 485937.97800064 9.71800041
142827.09900093 485937.68600082 10.09099960
142827.17799950 485937.65700150 7.87900019
142827.10300064 485937.40999985 10.37300014
142827.10199928 485937.15900040 10.73999977
142827.25000000 485936.59099960 7.33300018
142827.29999924 485936.57099915 5.93300009
142827.31500053 485936.29700089 5.88299990
142827.33600044 485936.04499817 5.63000011
142827.28400040 485935.82400131 7.42999983
142827.29800034 485935.52600098 7.44299984
142826.99600029 485934.89099884 16.83399963
142827.07900047 485934.85499954 14.58500004
142827.13999939 485934.82699966 12.87300014
142827.04899979 485934.61100006 15.72500038
142827.14999962 485934.56499863 12.95699978
142827.17499924 485934.28799820 12.64099979
142827.03700066 485934.09400177 16.77899933
142827.13299942 485934.04999924 14.15699959
142827.16699982 485933.50400162 13.95699978
142827.26300049 485933.45899963 11.30700016
142827.16399956 485933.24000168 14.38000011
142827.10199928 485933.02199936 16.43099976
142827.29100037 485932.93000031 11.23400021
142827.43199921 485932.86199951 7.33300018
142827.14299965 485932.75400162 15.64500046
142827.28100014 485932.68600082 11.84200001
142827.41500092 485932.62099838 8.15699959
142827.31699944 485932.40299988 11.23600006
142827.43199921 485932.34600067 8.05500031
142827.29500008 485931.89900017 12.51099968
142827.48299980 485931.80500031 7.36499977
142827.29500008 485931.36100006 13.26000023
142827.32099915 485931.10700035 12.87699986
142827.22800064 485930.90900040 15.79399967
142827.25000000 485930.64900017 15.51900005
142827.48100090 485930.52499962 9.17500019
142827.25200081 485930.36000061 15.86499977
142827.26499939 485930.08900070 15.87399960
142827.26499939 485929.84199905 16.20800018
142827.36000061 485929.78800011 13.59200001
142827.43300056 485929.47500038 11.96300030
142827.60099983 485929.38199997 7.36800003
142827.44499969 485929.18799973 12.02499962
142827.61499977 485929.09300041 7.36800003
142827.38599968 485928.96599960 14.00399971
142827.56500053 485928.86400032 9.09099960
142827.45299911 485928.69499969 12.46700001
142827.24600029 485928.56200027 18.53599930
142827.43099976 485928.45199966 13.43700027
142827.65900040 485928.31900024 7.15799999
142827.24699974 485928.29899979 18.85899925
142827.54800034 485928.11899948 10.58199978
142827.26399994 485928.04999924 18.72500038
142827.26799965 485927.82500076 18.92399979
142827.48100090 485927.69599915 13.08100033
142827.72299957 485927.54999924 6.42100000
142827.32399940 485927.52000046 17.75600052
142827.44199944 485927.44700050 14.51700020
142827.31599998 485927.26300049 18.34000015
142827.50099945 485927.14800072 13.25500011
142827.57299995 485927.10400009 11.28400040
142827.40699959 485926.96800041 16.17000008
142827.48600006 485926.91799927 14.01099968
142827.60499954 485926.84499931 10.74100018
142827.69599915 485926.78899956 8.24100018
142827.62100029 485926.60300064 10.61699963
142827.72800064 485926.53599930 7.66900015
142827.74500084 485926.27700043 7.54899979
142827.59300041 485926.09300041 12.11600018
142827.74300003 485925.99799919 8.01099968
142827.80800056 485925.95700073 6.21199989
142827.60300064 485925.82399940 12.21300030
142827.61000061 485925.59600067 12.33399963
142827.70700073 485925.53300095 9.65299988
142827.62199974 485925.34900093 12.33800030
142827.63100052 485925.07200050 12.46800041
142827.84199905 485924.43600082 7.34700012
142827.12599945 485941.12200165 10.40600014
142827.14399910 485940.85699844 10.26500034
142827.15500069 485940.55300140 10.36699963
142827.36100006 485940.04000092 5.22300005
142827.15699959 485939.56999969 11.63899994
142827.26399994 485939.53499985 8.69600010
142827.36599922 485939.50099945 5.84899998
142827.21999931 485939.29000092 10.23999977
142827.34499931 485939.24800110 6.79300022
142827.19599915 485939.03099823 11.29199982
142827.34000015 485938.98199844 7.31099987
142827.35099983 485938.70899963 7.37699986
142827.35400009 485938.46400070 7.58500004
142827.21500015 485938.26300049 11.81799984
142827.22599983 485938.00000000 11.86999989
142827.29100037 485937.97600174 10.05300045
142827.30599976 485937.71099854 9.98299980
142827.30100060 485937.44599915 10.50699997
142827.30500031 485937.20999908 10.73299980
142827.42499924 485936.88800049 7.75000000
142827.45999908 485936.58200073 7.19799995
142827.51199913 485936.56200027 5.75600004
142827.49200058 485935.79899979 7.36199999
142827.55299950 485935.49000168 6.05800009
142827.22100067 485935.39099884 15.62899971
142827.55699921 485935.24599838 6.28800011
142827.23900032 485935.12500000 15.47399998
142827.24099922 485934.85100174 15.80000019
142827.23900032 485934.59500122 16.20299911
142827.42700005 485934.51100159 11.01200008
142827.58499908 485934.43999863 6.61999989
142827.26700020 485934.34099960 15.74300003
142827.38699913 485934.28699875 12.43900013
142827.25200081 485934.09999847 16.50000000
142827.26899910 485933.81100082 16.42499924
142827.37700081 485933.48699951 13.83399963
142827.38400078 485933.23500061 13.97399998
142827.52599907 485933.16699982 10.05900002
142827.39299965 485932.99700165 14.03199959
142827.65299988 485932.87300110 6.86800003
142827.34300041 485932.74200058 15.80500031
142827.50600052 485932.66199875 11.32800007
142827.65900040 485932.58700180 7.09399986
142827.65099907 485932.33300018 7.66599989
142827.66300011 485932.07699966 7.68900013
142827.72100067 485932.04800034 6.08500004
142827.50399971 485931.89900017 12.41399956
142827.65800095 485931.82200050 8.19799995
142827.52899933 485931.59700012 12.13300037
142827.66600037 485931.52700043 8.36999989
142827.52499962 485931.31800079 12.63300037
142827.67300034 485931.24200058 8.57100010
142827.53199959 485931.06500053 12.76500034
142827.47699928 485930.32699966 15.34799957
142827.81500053 485930.14399910 6.05100012
142827.48200035 485930.09300041 15.53999996
142827.73999977 485929.95100021 8.46100044
142827.81100082 485929.91200066 6.48299980
142827.55500031 485929.81999969 13.85900021
142827.74500084 485929.71400070 8.59700012
142827.57699966 485929.55100060 13.59099960
142827.63100052 485929.52199936 12.12399960
142827.80500031 485929.42499924 7.34800005
142827.39699936 485929.36700058 18.97100067
142827.72599983 485929.17900085 9.89700031
142827.80999947 485929.13199997 7.57299995
142827.41200066 485929.12800026 18.86899948
142827.75799942 485928.92799950 9.33399963
142827.80800056 485928.89999962 7.96700001
142827.65399933 485928.75600052 12.53100014
142827.86000061 485928.63699913 6.84600019
142827.42200089 485928.63599968 19.25300026
142827.62800026 485928.51499939 13.59599972
142827.44300079 485928.36199951 19.06100082
142827.56500053 485928.04199982 16.04000092
142827.73299980 485927.94099998 11.41499996
142827.82099915 485927.88899994 8.98700047
142827.91300011 485927.83399963 6.45300007
142827.50099945 485927.82600021 18.14100075
142827.58499908 485927.77499962 15.83399963
142827.69199944 485927.70999908 12.88199997
142827.92900085 485927.56800079 6.37200022
142827.50399971 485927.56999969 18.41399956
142827.65699959 485927.47500038 14.21000004
142827.77099991 485927.40600014 11.07299995
142827.60600090 485927.24399948 15.96899986
142827.70899963 485927.18000031 13.14900017
142827.81299973 485927.11700058 10.28699970
142827.60499954 485927.01399994 16.33799934
142827.69499969 485926.95800018 13.85700035
142827.75799942 485926.91900063 12.12399960
142827.92399979 485926.81599998 7.54300022
142827.76300049 485926.66799927 12.32299995
142827.93600082 485926.55999947 7.55600023
142827.78499985 485926.39900017 12.07699966
142827.93799973 485926.30200005 7.85900021
142827.95499992 485926.01199913 7.80299997
142827.80800056 485925.86499977 12.16399956
142827.90299988 485925.80400085 9.54599953
142827.94899940 485925.77499962 8.28600025
142827.81299973 485925.63899994 12.34200001
142827.98299980 485925.52899933 7.66599989
142827.81900024 485925.36400032 12.54399967
142828.00099945 485925.24500084 7.53499985
142827.85099983 485925.05599976 12.06099987
142828.04299927 485924.67300034 7.13999987
142827.41799927 485941.09199905 10.40900040
142827.40900040 485940.81100082 11.03199959
142827.42700005 485940.56999969 10.84099960
142827.50900078 485940.54399872 8.58399963
142827.47299957 485940.32799911 9.92700005
142827.53899956 485940.30699921 8.05799961
142827.58200073 485940.00099945 7.28800011
142827.55299950 485939.51399994 8.77400017
142827.45499992 485939.28799820 11.83800030
142827.67099953 485939.21500015 5.85599995
142827.50000000 485939.01300049 10.93700027
142827.59600067 485938.97999954 8.27999973
142827.64200020 485938.96500015 7.02299976
142827.64900017 485938.66899872 7.21899986
142827.50699997 485938.45999908 11.52299976
142827.52400017 485938.22700119 11.36499977
142827.59499931 485937.91799927 9.77700043
142827.65900040 485937.89400101 7.97200012
142827.61400032 485937.61899948 9.63099957
142827.74099922 485936.79999924 7.17899990
142827.79500008 485936.77899933 5.68300009
142827.65699959 485936.54199982 9.92700005
142827.73100090 485936.51200104 7.87699986
142827.65299988 485936.31700134 10.35299969
142827.76099968 485936.27299881 7.33599997
142827.77599907 485936.04000092 7.24399996
142827.79299927 485935.74200058 7.18900013
142827.66099930 485935.51399994 11.22900009
142827.50499916 485935.35599899 15.86600018
142827.64999962 485935.29299927 11.85499954
142827.52099991 485935.09199905 15.77299976
142827.66399956 485935.02899933 11.83100033
142827.86100006 485934.68399811 6.71400023
142827.71999931 485934.45600128 11.03199959
142827.86899948 485934.38999939 6.90399981
142827.56800079 485934.04299927 15.86499977
142827.65999985 485934.00000000 13.34899998
142827.57399940 485933.75899887 16.09600067
142827.67799950 485933.70999908 13.23999977
142827.74099922 485933.68099976 11.51599979
142827.57900047 485933.47600174 16.36199951
142827.72500038 485933.40700150 12.35299969
142827.90500069 485933.32199860 7.35400009
142827.94599915 485933.05199814 6.57999992
142827.69300079 485932.90700150 13.89900017
142827.79100037 485932.86000061 11.21899986
142827.86499977 485932.82500076 9.18999958
142827.95999908 485932.77899933 6.55600023
142827.69400024 485932.61800003 14.29599953
142827.77799988 485932.32799911 12.30399990
142827.65099907 485932.15900040 16.14100075
142827.97299957 485931.99799919 7.27500010
142828.03800011 485931.72299957 5.80399990
142827.96199989 485931.25399971 8.60799980
142827.78100014 485930.11499977 15.28899956
142828.02799988 485929.97999954 8.51200008
142827.70899963 485929.89900017 17.62700081
142827.80900002 485929.84399986 14.87899971
142828.09399986 485929.41200066 7.41300011
142827.68499947 485929.38699913 19.01600075
142827.75799942 485929.34499931 17.01399994
142828.12500000 485929.13800049 6.92600012
142827.71899986 485929.12899971 18.41099930
142827.88299942 485929.03400040 13.89900017
142827.73900032 485928.88699913 18.17799950
142827.95100021 485928.76300049 12.35200024
142827.72200012 485928.61800003 19.02700043
142827.79400063 485928.57500076 17.06100082
142827.94400024 485928.48699951 12.92500019
142827.74099922 485928.35199928 18.85899925
142827.78400040 485928.32600021 17.68199921
142827.96500015 485928.21899986 12.69999981
142828.02000046 485928.18600082 11.17800045
142827.80400085 485928.05900002 17.47699928
142827.98100090 485927.95299911 12.62399960
142828.05999947 485927.90699959 10.44299984
142827.77400017 485927.84799957 18.63500023
142828.06100082 485927.67399979 10.72500038
142827.78800011 485927.58399963 18.58699989
142828.05800056 485927.42000008 11.18599987
142827.83099937 485927.27899933 17.79800034
142827.98399925 485927.18499947 13.59300041
142828.05999947 485927.13899994 11.51799965
142828.20599937 485927.04899979 7.50500011
142827.83099937 485927.02499962 18.12299919
142828.06999969 485926.87599945 11.58899975
142827.94000053 485926.70999908 15.48999977
142828.07600021 485926.62500000 11.77099991
142827.89500046 485926.45199966 17.14299965
142827.90699959 485926.18099976 17.13199997
142828.18199921 485926.00699997 9.60900021
142827.94700050 485925.90999985 16.38500023
142828.20999908 485925.74099922 9.19699955
142828.11800003 485925.56800079 12.03600025
142828.25200081 485925.48200035 8.35999966
142828.11700058 485925.32200050 12.39700031
142828.26899910 485924.95899963 8.61800003
142828.32799911 485924.92000008 6.98999977
142827.81900024 485941.15800095 10.62300014
142827.83499908 485940.88499832 10.53600025
142827.85600090 485940.62699890 10.29699993
142827.75200081 485940.40700150 13.52799988
142827.78000069 485940.13899994 13.10000038
142827.90600014 485940.09999847 9.63099957
142827.95700073 485940.08300018 8.21500015
142827.80299950 485939.84000015 12.85499954
142827.93099976 485939.79899979 9.30200005
142827.96599960 485939.53599930 8.69799995
142827.82600021 485939.31499863 12.93799973
142827.89399910 485939.03300095 11.41600037
142827.84799957 485938.76499939 13.07499981
142827.85700035 485938.51100159 13.16800022
142827.95700073 485938.47600174 10.39999962
142827.96299934 485938.23899841 10.56999969
142828.10600090 485938.18700027 6.61399984
142827.97699928 485937.68299866 10.93200016
142828.03700066 485937.65999985 9.25800037
142828.16200066 485937.61399841 5.82000017
142828.05100060 485937.41199875 9.20699978
142828.05500031 485937.16799927 9.43700027
142828.19700050 485937.11299896 5.49499989
142828.16500092 485936.84199905 6.78999996
142827.85300064 485936.69900131 15.79500008
142828.00099945 485936.63899994 11.70899963
142828.18300056 485936.56600189 6.64300013
142828.21400070 485936.30300140 6.14599991
142828.08799934 485936.11899948 9.94900036
142828.19799995 485935.79000092 7.29099989
142828.21599960 485935.50000000 7.20200014
142828.25099945 485934.97499847 6.94799995
142828.28899956 485934.95800018 5.89200020
142828.29000092 485934.39899826 6.64599991
142828.12899971 485934.23699951 11.40299988
142828.29500008 485934.16199875 6.82399988
142828.32299995 485933.64799881 6.74200010
142828.13299942 485933.47800064 12.32199955
142828.32399940 485933.38899994 7.07399988
142828.12500000 485933.25699997 12.86699963
142828.37500000 485933.13899994 5.97800016
142828.39500046 485932.86999893 5.78700018
142828.18700027 485932.70500183 11.88199997
142828.15999985 485932.45999908 12.96199989
142828.22500038 485932.42900085 11.18700027
142828.07299995 485932.03900146 15.98900032
142828.19199944 485931.97800064 12.69999981
142828.28700066 485931.65800095 10.49899960
142828.34499931 485931.62800026 8.90299988
142828.30699921 485931.35799980 10.36499977
142828.02199936 485931.27499962 18.49500084
142828.05100060 485931.02799988 18.02000046
142828.11300087 485930.73800087 16.65399933
142828.12899971 485930.45100021 16.61400032
142828.52499962 485930.23699951 5.75099993
142828.53700066 485929.99699974 5.75199986
142828.21999931 485929.92099953 14.77900028
142828.50499916 485929.76499939 6.96999979
142828.28000069 485929.63100052 13.47999954
142828.09600067 485929.47200012 18.88800049
142828.15900040 485929.43600082 17.16399956
142828.28499985 485929.36499977 13.70499992
142828.36899948 485929.06100082 11.74699974
142828.57099915 485928.94700050 6.24100018
142828.11800003 485928.95000076 18.97699928
142828.20599937 485928.89900017 16.58300018
142828.36899948 485928.80500031 12.10099983
142828.13699913 485928.66799927 18.83399963
142828.12400055 485928.38999939 19.60499954
142828.46299934 485928.18899918 10.28699970
142828.17200089 485928.13899994 18.57200050
142828.46800041 485927.96199989 10.47200012
142828.16600037 485927.89599991 19.08600044
142828.28300095 485927.82500076 15.87899971
142828.37199974 485927.77099991 13.44799995
142828.17900085 485927.62500000 19.07699966
142828.26799965 485927.57099915 16.64800072
142828.67399979 485927.06900024 5.88199997
142828.34700012 485927.02799988 15.16800022
142828.56100082 485926.64900017 9.65200043
142828.32099915 485926.52799988 16.59199905
142828.29899979 485926.25399971 17.56200027
142828.36100006 485925.99300003 16.20899963
142828.34700012 485925.77099991 16.88899994
142828.54000092 485925.64699936 11.64400005
142828.53800011 485925.36899948 12.06499958
142828.07799911 485940.47800064 12.54699993
142828.09600067 485940.21300125 12.40900040
142828.20299911 485940.17900085 9.46800041
142828.11400032 485939.93999863 12.26399994
142828.33099937 485939.86999893 6.27500010
142828.12299919 485939.68600082 12.38500023
142828.28199959 485939.63399887 7.99599981
142828.10700035 485939.43199921 13.17300034
142828.18400002 485939.15499878 11.37899971
142828.31800079 485939.11000061 7.70400000
142828.15699959 485938.88100052 12.52000046
142828.17799950 485938.62300110 12.30000019
142828.41500092 485938.54000092 5.75000000
142828.17000008 485938.37500000 12.84700012
142828.26600075 485938.34000015 10.20899963
142828.34700012 485938.31100082 7.94899988
142828.39699936 485938.29399872 6.59600019
142828.26700020 485938.08100128 10.53199959
142828.49900055 485937.71200180 4.53599977
142828.34900093 485937.50799942 9.00599957
142828.45899963 485937.46599960 5.94500017
142828.49300003 485937.20100021 5.35400009
142828.36199951 485936.96799850 9.38099957
142828.47100067 485936.92599869 6.36000013
142828.12800026 485936.77000046 16.26300049
142828.39200020 485936.66500092 8.96399975
142828.15200043 485936.51100159 15.93900013
142828.49600029 485936.12900162 6.75600004
142828.50499916 485935.86600113 6.86899996
142828.58399963 485935.83300018 4.67600012
142828.17600060 485935.74499893 16.32699966
142828.18099976 485935.26900101 16.79700089
142828.55500031 485934.83200073 6.88899994
142828.33200073 485934.67200089 13.40100002
142828.56500053 485934.56900024 6.96199989
142828.35000038 485934.43099976 13.23600006
142828.57600021 485934.33000183 7.00699997
142828.38500023 485934.18099976 12.57900047
142828.44700050 485934.15299988 10.87500000
142828.42499924 485933.91400146 11.82100010
142828.59799957 485933.83399963 7.05700016
142828.44300079 485933.61500168 11.72399998
142828.60899925 485933.53799820 7.14200020
142828.34799957 485933.40999985 14.65799999
142828.64100075 485933.27299881 6.61100006
142828.36400032 485933.16999817 14.54500008
142828.51399994 485933.09899902 10.44699955
142828.68700027 485933.01699829 5.66699982
142828.48800087 485932.59600067 11.85499954
142828.52400017 485932.57899857 10.86900043
142828.36000061 485932.39500046 15.73400021
142828.53899956 485932.30599976 10.82299995
142828.36800003 485932.16699982 15.82299995
142828.55200005 485932.07400131 10.77900028
142828.40299988 485931.86800003 15.22999954
142828.29400063 485931.66099930 18.59000015
142828.35099983 485931.63100052 17.02099991
142828.30500031 485931.41600037 18.63400078
142828.32600021 485931.16500092 18.37400055
142828.45400047 485931.09700012 14.87699986
142828.46999931 485930.80800056 14.81400013
142828.78300095 485930.64299965 6.24399996
142828.42799950 485930.54299927 16.35600090
142828.35300064 485930.32900047 18.77000046
142828.80500031 485930.08300018 6.39900017
142828.52300072 485930.00300026 14.43400002
142828.84199905 485929.82900047 5.68800020
142828.39500046 485929.80400085 18.31200027
142828.85400009 485929.54899979 5.75799990
142828.37100029 485929.56299973 19.33900070
142828.46299934 485929.51000023 16.80500031
142828.86300087 485929.28599930 5.84600019
142828.40399933 485929.31299973 18.73999977
142828.86800003 485929.04999924 6.03399992
142828.39200020 485929.08099937 19.39200020
142828.50900078 485929.01399994 16.20199966
142828.67099953 485928.92000008 11.74300003
142828.38100052 485928.80900002 20.08399963
142828.40800095 485928.51499939 19.73699951
142828.56999969 485928.42000008 15.30300045
142828.76499939 485928.30500031 9.95400047
142828.41399956 485928.25600052 19.89999962
142828.66600037 485927.88299942 13.31900024
142828.95199966 485927.46400070 5.83699989
142828.82299995 485927.25300026 9.74800014
142828.64299965 485927.12299919 15.01700020
142828.83799934 485927.00300026 9.67599964
142828.65299988 485926.88500023 15.06499958
142828.64999962 485926.60899925 15.52400017
142828.76600075 485926.53599930 12.36699963
142828.77000046 485926.27899933 12.61299992
142828.68300056 485926.07799911 15.33199978
142828.62999916 485925.87400055 17.09199905
142828.67499924 485925.59000015 16.19899940
142828.84900093 485925.19099998 11.88399982
142828.86300087 485924.92600060 11.83300018
142828.36800003 485940.77600098 9.78199959
142828.35300064 485940.53699875 10.52000046
142828.38100052 485940.52799988 9.77099991
142828.29700089 485940.27799988 12.45199966
142828.46800041 485939.95700073 8.10599995
142828.33200073 485939.74100113 12.20199966
142828.35400009 485939.48199844 11.96000004
142828.52300072 485939.14199829 7.68699980
142828.36000061 485938.88899994 12.60299969
142828.55500031 485938.82199860 7.22300005
142828.39399910 485938.64199829 11.96599960
142828.57099915 485938.58000183 7.07999992
142828.61899948 485938.56399918 5.76499987
142828.46500015 485938.36600113 10.34399986
142828.50200081 485938.08599854 9.69900036
142828.68099976 485938.02099991 4.75799990
142828.69899940 485937.76200104 4.61399984
142828.56599998 485937.33300018 8.94200039
142828.67099953 485937.29199982 6.01100016
142828.69799995 485937.28300095 5.30100012
142828.30800056 485937.17399979 16.42700005
142828.46400070 485937.11299896 12.12300014
142828.67600060 485937.03099823 6.25199986
142828.32900047 485936.88399887 16.24300003
142828.68400002 485936.74399948 6.41599989
142828.37299919 485936.63299942 15.33199978
142828.68600082 485936.50799942 6.67799997
142828.37000084 485935.87799835 16.48399925
142828.70199966 485935.73899841 7.29400015
142828.53499985 485935.55899811 12.24199963
142828.76799965 485935.46099854 5.82299995
142828.74799919 485935.20199966 6.75000000
142828.54899979 485934.77099991 12.94400024
142828.76099968 485934.67800140 7.09999990
142828.55299950 485934.52799988 13.18099976
142828.78199959 485934.42599869 6.84800005
142828.57600021 485934.27600098 12.86200047
142828.65900040 485934.23899841 10.58699989
142828.59900093 485934.00799942 12.60400009
142828.80400085 485933.91400146 6.94000006
142828.61800003 485933.70899963 12.46000004
142828.62199974 485933.47399902 12.67300034
142828.81599998 485933.38299942 7.31799984
142828.72100067 485933.19499969 10.28299999
142828.89900017 485933.11000061 5.35200024
142828.71999931 485932.91299820 10.70499992
142828.60499954 485932.68700027 14.22599983
142828.69899940 485932.64099884 11.64500046
142828.55599976 485932.45500183 15.93099976
142828.69499969 485932.38600159 12.09500027
142828.49699974 485932.23699951 17.90099907
142828.60499954 485931.92600060 15.27299976
142828.49799919 485931.69300079 18.61700058
142828.50000000 485931.46100044 18.88400078
142828.71199989 485931.35000038 13.05700016
142828.50399971 485931.22800064 19.10400009
142828.52300072 485930.96199989 18.93799973
142828.67000008 485930.59499931 15.27700043
142828.55699921 485930.40999985 18.73999977
142828.64599991 485930.36000061 16.27700043
142829.02700043 485930.15399933 5.83199978
142828.72699928 485930.06800079 14.39900017
142829.04800034 485929.89299965 5.61100006
142828.67399979 485929.83399963 16.20700073
142828.74600029 485929.79299927 14.22900009
142828.72500038 485929.54199982 15.17399979
142828.94700050 485929.41699982 9.09599972
142828.60300064 485929.36400032 18.87599945
142828.57099915 485929.15099907 20.07500076
142828.72800064 485929.06100082 15.77099991
142828.89599991 485928.96500015 11.14599991
142828.58900070 485928.87800026 19.93400002
142828.65399933 485928.84099960 18.14399910
142828.77700043 485928.76899910 14.78499985
142828.96500015 485928.65999985 9.61100006
142828.97299957 485928.38299942 9.78400040
142828.61100006 485928.35600090 19.99799919
142828.67399979 485928.31999969 18.30900002
142828.65099907 485928.08699989 19.28199959
142828.65099907 485927.80800056 19.63500023
142828.70899963 485927.77400017 18.08200073
142828.86700058 485927.67700005 13.72900009
142829.02199936 485927.58499908 9.49499989
142828.85899925 485927.42700005 14.31200027
142829.03000069 485927.32399940 9.63799953
142828.79500008 485927.21199989 16.42099953
142828.87400055 485926.90699959 14.60299969
142828.87199974 485926.62999916 15.05099964
142828.90399933 485926.61000061 14.18799973
142828.88199997 485926.36100006 15.13399982
142828.96599960 485926.30800056 12.84000015
142828.90900040 485926.08900070 14.76599979
142828.91399956 485925.84700012 14.94900036
142829.01099968 485925.78400040 12.28299999
142828.89599991 485925.60400009 15.77799988
142828.93199921 485925.31800079 15.16199970
142828.93899918 485925.05800056 15.30399990
142829.20700073 485924.88299942 8.00599957
142828.67300034 485940.40299988 9.53100014
142828.72400093 485940.38700104 8.11200047
142828.65299988 485940.11700058 10.46899986
142828.67300034 485939.85900116 10.24600029
142828.78599930 485939.82300186 7.15199995
142828.67499924 485939.11199951 11.23200035
142828.78599930 485939.07500076 8.15799999
142828.68300056 485938.85800171 11.35900021
142828.79999924 485938.81800079 8.10799980
142828.68499947 485938.60599899 11.63700008
142828.84199905 485938.55099869 7.28499985
142828.73900032 485938.34500122 10.48600006
142828.87400055 485938.29600143 6.74300003
142828.76099968 485938.06900024 10.23099995
142828.89100075 485938.02199936 6.64699984
142828.96400070 485937.99599838 4.65700006
142828.89500046 485937.75999832 6.88500023
142828.82299995 485937.55199814 9.20699978
142828.89900017 485937.52399826 7.10200024
142828.96500015 485937.49900055 5.28999996
142828.73900032 485937.33300018 11.88099957
142828.95199966 485937.25199890 5.99300003
142828.74200058 485937.04100037 12.19799995
142828.87199974 485936.99100113 8.60299969
142828.61599922 485936.84199905 16.04700089
142828.62400055 485936.38000107 16.44499969
142828.78199959 485936.31499863 12.07199955
142829.02099991 485936.21799850 5.45200014
142828.63999939 485936.08399963 16.40600014
142828.66099930 485935.81000137 16.20299911
142828.79599953 485935.75199890 12.46000004
142828.85099983 485934.44699860 12.70699978
142829.06900024 485934.34999847 6.68900013
142828.57600021 485934.32300186 20.60899925
142828.89500046 485934.17800140 11.84700012
142828.95800018 485934.15000153 10.10200024
142828.93300056 485933.87900162 11.18000031
142828.71199989 485933.71699905 17.61300087
142828.86400032 485933.64500046 13.46500015
142828.91799927 485933.61999893 11.94900036
142829.01099968 485933.57600021 9.38300037
142828.73100090 485933.45899963 17.42499924
142828.99799919 485933.33300018 10.09099960
142829.18600082 485933.24399948 4.91699982
142828.72100067 485933.23199844 18.03599930
142828.99300003 485933.10200119 10.56400013
142828.97900009 485932.84999847 11.29300022
142828.89699936 485932.62500000 13.89599991
142828.98900032 485932.58100128 11.39999962
142828.90900040 485932.36999893 13.90200043
142828.93400002 485932.10900116 13.58300018
142828.78300095 485931.90699959 18.12800026
142828.85300064 485931.37400055 16.87899971
142828.99200058 485931.30100060 13.04300022
142828.99399948 485931.04299927 13.33800030
142828.90999985 485930.84000015 15.98999977
142829.30100060 485930.35899925 5.65700006
142828.84199905 485930.35899925 18.59600067
142828.90200043 485930.32500076 16.93499947
142829.31200027 485930.10300064 5.70800018
142828.83399963 485930.13999939 19.12199974
142828.91300011 485929.80800056 17.33099937
142828.96999931 485929.77700043 15.76399994
142829.04400063 485929.73500061 13.75399971
142829.01300049 485929.47299957 14.98099995
142828.90699959 485929.30999947 18.19199944
142828.98600006 485929.26499939 16.02499962
142829.15900040 485929.16600037 11.28899956
142828.86000061 485929.08200073 19.85199928
142828.95199966 485929.02899933 17.31999969
142828.85700035 485928.79700089 20.29100037
142829.26499939 485928.56100082 9.12199974
142828.87899971 485928.50600052 20.08600044
142829.14699936 485928.34900093 12.75599957
142829.28000069 485928.27099991 9.10799980
142829.14999962 485928.12299919 12.99400043
142828.99200058 485927.96999931 17.65200043
142829.16699982 485927.86499977 12.84899998
142829.08300018 485927.14299965 16.21699905
142829.07699966 485926.89200020 16.73900032
142829.25499916 485926.78100014 11.87300014
142829.26600075 485926.49500084 11.95100021
142829.07600021 485926.35099983 17.49099922
142829.27899933 485926.22299957 11.96199989
142829.20899963 485926.02000046 14.22099972
142829.37299919 485925.91600037 9.73299980
142829.14500046 485925.83799934 16.23800087
142829.44700050 485925.64500046 8.01799965
142829.46100044 485925.34000015 8.05900002
142829.48399925 485925.07600021 7.75699997
142829.01899910 485941.04700089 8.77900028
142828.95999908 485940.82899857 10.71399975
142829.02899933 485940.80799866 8.82999992
142829.04800034 485940.54199982 8.64599991
142828.94499969 485940.03799820 12.21300030
142829.02499962 485939.78499985 10.31999969
142829.07900047 485939.76800156 8.82600021
142829.04000092 485939.53699875 10.22200012
142829.09900093 485939.51800156 8.60599995
142829.11800003 485939.22700119 8.46000004
142829.04100037 485938.97700119 10.98499966
142829.04100037 485938.75000000 11.27900028
142829.19499969 485938.69699860 7.06300020
142829.20100021 485938.45899963 7.18400002
142829.29000092 485938.42699814 4.73699999
142829.26300049 485938.16099930 5.88299990
142829.30500031 485938.14500046 4.70400000
142829.29000092 485937.87500000 5.51499987
142829.14200020 485937.69400024 9.91100025
142829.31699944 485937.62900162 5.07999992
142828.85600090 485937.55300140 18.15699959
142829.19700050 485937.42200089 8.72299957
142829.08399963 485937.19699860 12.20300007
142829.21800041 485937.14599991 8.50800037
142828.94599915 485936.99399948 16.37800026
142829.09199905 485936.93600082 12.35599995
142828.98600006 485936.72100067 15.63199997
142829.02899933 485936.44599915 14.79899979
142829.14599991 485936.39799881 11.58300018
142828.99699974 485936.17699814 16.07099915
142829.16200066 485936.10900116 11.53199959
142829.39900017 485936.01200104 4.98099995
142829.00799942 485935.88299942 16.18000031
142829.16200066 485935.81800079 11.92800045
142829.43099976 485935.70700073 4.51499987
142829.05800056 485935.11399841 15.78899956
142828.93600082 485934.68700027 19.81800079
142828.99399948 485934.40499878 18.59099960
142829.42200089 485934.21099854 6.81599998
142828.94599915 485934.14699936 20.28899956
142829.28800011 485933.99000168 10.90499973
142829.33900070 485933.96599960 9.48200035
142828.94599915 485933.87500000 20.67700005
142829.07900047 485933.58000183 17.31999969
142829.34600067 485933.45500183 10.00599957
142829.54199982 485933.36299896 4.59700012
142829.48900032 485933.14599991 6.40399981
142829.09300041 485933.04499817 17.67099953
142829.20800018 485932.98899841 14.51399994
142829.51899910 485932.84000015 5.97100019
142829.09900093 485932.78699875 17.85499954
142829.25099945 485932.71200180 13.68599987
142829.27000046 485932.47700119 13.45699978
142829.24799919 485931.96599960 14.77200031
142829.20400047 485931.46100044 16.71299934
142829.33699989 485931.39299965 13.08199978
142829.24900055 485931.20599937 15.79399967
142829.33499908 485931.16099930 13.44600010
142829.64900017 485930.70800018 5.26599979
142829.16099930 485930.69400024 18.98800087
142829.65699959 485930.42900085 5.40500021
142829.20700073 485930.42300034 18.07600021
142829.42399979 485929.78300095 12.82800007
142829.40900040 485929.50300026 13.64900017
142829.50900078 485929.44700050 10.90499973
142829.27499962 485929.35499954 17.62500000
142829.58799934 485929.17900085 9.04399967
142829.20000076 485929.16799927 19.99799919
142829.19899940 485928.88100052 20.39200020
142829.31999969 485928.81100082 17.10499954
142829.49399948 485928.71100044 12.34899998
142829.24900055 485928.58200073 19.41300011
142829.33200073 485928.53300095 17.13899994
142829.49099922 485928.44000053 12.79599953
142829.23699951 485928.36700058 20.04000092
142829.29899979 485928.06800079 18.73200035
142829.34000015 485927.78800011 17.95999908
142829.34799957 485927.50499916 18.13100052
142829.43700027 485927.45199966 15.68799973
142829.41900063 485927.24699974 16.47599983
142829.48999977 485927.20299911 14.52200031
142829.49699974 485926.93600082 14.69999981
142829.40999985 485926.69499969 17.46100044
142829.42200089 485926.41699982 17.49799919
142829.76199913 485926.20400047 8.25599957
142829.65999985 485926.02799988 11.36600018
142829.71899986 485925.99099922 9.74199963
142829.78800011 485925.94799995 7.88100004
142829.79800034 485925.67700005 7.97300005
142829.50300026 485925.57900047 16.37199974
142829.58399963 485925.52599907 14.19999981
142829.75000000 485925.17200089 10.00300026
142829.84799957 485924.87599945 7.66599989
142829.76300049 485924.43700027 10.65999985
142829.84399986 485923.87899971 9.13799953
142829.06699944 485941.86299896 12.85999966
142829.08600044 485941.59799957 12.71100044
142829.20899963 485940.53099823 10.71500015
142829.20599937 485940.26399994 11.14000034
142829.29000092 485939.99300003 9.15200043
142829.31500053 485939.73400116 8.81299973
142829.27099991 485939.49700165 10.39900017
142829.36000061 485939.46699905 7.95499992
142829.29700089 485939.19599915 10.07600021
142829.43700027 485939.14899826 6.21899986
142829.32600021 485938.43999863 10.27999973
142829.50600052 485938.37599945 5.32800007
142829.33200073 485938.15399933 10.52600002
142829.51199913 485938.08900070 5.55299997
142829.05200005 485937.98400116 18.63400078
142829.06900024 485937.72100067 18.52300072
142829.28100014 485937.63899994 12.66600037
142829.39800072 485937.59500122 9.43000031
142829.49600029 485937.55899811 6.72399998
142829.57299995 485937.52999878 4.61800003
142829.44300079 485937.33499908 8.51200008
142829.32600021 485937.08900070 12.15499973
142829.46199989 485937.03599930 8.39599991
142829.17700005 485936.91400146 16.58300018
142829.34099960 485936.84899902 12.05599976
142829.18099976 485936.67900085 16.79999924
142829.23600006 485936.65700150 15.27299976
142829.27300072 485936.39300156 14.61600018
142829.38800049 485936.34500122 11.43299961
142829.24500084 485936.11500168 15.79800034
142829.40500069 485936.04800034 11.37800026
142829.26300049 485935.84199905 15.66699982
142829.39399910 485935.78599930 12.04699993
142829.27400017 485935.58700180 15.68200016
142829.41099930 485935.52899933 11.90600014
142829.10700035 485935.40999985 20.60799980
142829.12700081 485935.13800049 20.43899918
142829.18499947 485934.85599899 19.17200089
142829.13500023 485934.65399933 20.86899948
142829.15800095 485934.38800049 20.59399986
142829.65699959 485934.16099930 6.86000013
142829.17099953 485934.08599854 20.65699959
142829.55699921 485933.90800095 10.03499985
142829.57900047 485933.66400146 9.75599957
142829.77599907 485933.57300186 4.33300018
142829.24099922 485933.30199814 19.75499916
142829.31500053 485933.26699829 17.71999931
142829.28599930 485933.01699829 18.88699913
142829.74900055 485932.79299927 6.17100000
142829.37500000 485932.71599960 16.76799965
142829.48800087 485932.65999985 13.66100025
142829.29800034 485932.50699997 19.24799919
142829.51499939 485932.39899826 13.27900028
142829.47299957 485932.13999939 14.82199955
142829.32200050 485931.95199966 19.32600021
142829.56999969 485931.56800079 12.85400009
142829.45800018 485931.37899971 16.28800011
142829.57099915 485931.31900024 13.16899967
142829.87700081 485930.90299988 5.15100002
142829.88699913 485930.63999939 5.25500011
142829.40999985 485930.62899971 18.66799927
142829.43400002 485930.10700035 18.72800064
142829.62700081 485929.99900055 13.42300034
142829.57900047 485929.74699974 15.13000011
142829.66300011 485929.69899940 12.81799984
142829.74300003 485929.65500069 10.62699986
142829.57299995 485929.52599907 15.60700035
142829.73800087 485929.43300056 11.07800007
142829.72800064 485929.19000053 11.70100021
142829.42200089 485929.10199928 20.43499947
142829.72299957 485928.92900085 12.20300007
142829.71800041 485928.64399910 12.73600006
142829.55100060 485928.49399948 17.65800095
142829.62199974 485928.45199966 15.70100021
142829.49200058 485928.28199959 19.57699966
142829.54800034 485928.24900055 18.06800079
142829.73800087 485928.13599968 12.88300037
142829.50900078 485927.99300003 19.49200058
142829.81599998 485927.80999947 11.11499977
142829.54999924 485927.68300056 18.76000023
142829.66799927 485927.61199951 15.56700039
142829.56100082 485927.42200089 18.82399940
142829.71899986 485927.10199928 14.84500027
142829.65299988 485926.87199974 17.00499916
142829.72500038 485926.82699966 15.04300022
142829.73100090 485926.56900024 15.23600006
142829.88299942 485926.47400093 11.09000015
142829.92300034 485926.44899940 9.99800014
142829.74099922 485926.34000015 15.26200008
142830.00200081 485926.17499924 8.13099957
142830.00699997 485925.94799995 8.30300045
142829.73299980 485925.84300041 16.15099907
142829.87899971 485925.25499916 12.87399960
142829.96599960 485924.96699905 10.82199955
142829.98600006 485924.69000053 10.63700008
142830.04500008 485924.37199974 9.42199993
142830.05100060 485924.11199951 9.60799980
142830.06299973 485923.87999916 9.57600021
142829.25000000 485941.83599854 13.15299988
142829.28300095 485941.56700134 12.58399963
142829.41500092 485940.20500183 10.75100040
142829.40699959 485939.93999863 11.35700035
142829.49300003 485939.91199875 8.95100021
142829.40900040 485939.68799973 11.64099979
142829.41099930 485939.42800140 11.94600010
142829.46800041 485939.40900040 10.36999989
142829.55599976 485939.38000107 7.94199991
142829.49300003 485939.12500000 10.02999973
142829.49300003 485938.87400055 10.39999962
142829.68300056 485938.80799866 5.14499998
142829.50200081 485938.64300156 10.44799995
142829.69899940 485938.30599976 5.40199995
142829.70800018 485938.02600098 5.52299976
142829.25499916 485937.94300079 18.39299965
142829.71599960 485937.77099991 5.65999985
142829.26000023 485937.68399811 18.60700035
142829.72800064 485937.50699997 5.66099977
142829.77499962 485937.48899841 4.38000011
142829.26300049 485937.41799927 18.89500046
142829.57699966 485937.29600143 10.21500015
142829.29700089 485937.14799881 18.30999947
142829.66099930 485937.00400162 8.22799969
142829.36800003 485936.86199951 16.71500015
142829.54000092 485936.79299927 11.93099976
142829.44099998 485936.60699844 14.98799992
142829.77300072 485936.47399902 5.80100012
142829.47100067 485936.33000183 14.54100037
142829.79299927 485936.19800186 5.61100006
142829.59600067 485935.99499893 11.45899963
142829.45499992 485935.82899857 15.66499996
142829.46999931 485935.55699921 15.62199974
142829.61300087 485935.49599838 11.67899990
142829.29999924 485935.34899902 20.67900085
142829.48800087 485935.26800156 15.52000046
142829.63999939 485935.20199966 11.30900002
142829.30100060 485935.09299850 21.00499916
142829.31900024 485934.83700180 20.86800003
142829.37800026 485934.81100082 19.21999931
142829.67000008 485934.68099976 11.18000031
142829.33600044 485934.56600189 20.75099945
142829.69499969 485934.40399933 10.88199997
142829.40200043 485934.25600052 19.31999969
142829.77400017 485934.08599854 9.08899975
142829.53300095 485933.93899918 16.05200005
142829.76499939 485933.83200073 9.69299984
142829.44599915 485933.73899841 18.78100014
142829.77599907 485933.58499908 9.71800041
142829.97299957 485933.49300003 4.29600000
142829.43400002 485933.47299957 19.49099922
142829.52099991 485933.43099976 17.10300064
142829.44300079 485933.21300125 19.60799980
142829.65800095 485932.86000061 14.02400017
142829.93600082 485932.72600174 6.38600016
142829.56599998 485932.65700150 16.89299965
142829.48399925 485932.44200134 19.50300026
142829.50600052 485932.15999985 19.27099991
142829.67200089 485932.07600021 14.69600010
142829.52599907 485931.87000084 19.12299919
142829.51600075 485931.65200043 19.70000076
142829.76099968 485931.52400017 12.94999981
142829.66900063 485931.31599998 15.83399963
142830.06599998 485931.11100006 4.95599985
142829.64699936 485931.07200050 16.78800011
142830.07500076 485930.84700012 5.06199980
142829.61700058 485930.81699944 17.98999977
142829.64200020 485930.80299950 17.32600021
142829.61700058 485930.56999969 18.33600044
142829.63800049 485930.29500008 18.11899948
142829.85700035 485930.17399979 12.10700035
142829.99099922 485930.10199928 8.42599964
142829.62899971 485930.02099991 18.76099968
142829.86400032 485929.88999939 12.29500008
142829.92700005 485929.85600090 10.56799984
142829.78100014 485929.65699959 14.97299957
142829.93400002 485929.57099915 10.77400017
142829.79599953 485929.40099907 14.89799976
142829.93199921 485929.32399940 11.18799973
142829.68300056 485929.22599983 18.33300018
142829.91200066 485929.09399986 12.05700016
142829.88599968 485928.84499931 13.13300037
142829.73999977 485928.45999908 17.79999924
142829.83699989 485928.40299988 15.11699963
142829.67499924 485928.25900078 19.88299942
142829.73500061 485928.22400093 18.24900055
142829.92799950 485928.10899925 12.95800018
142830.00000000 485928.06699944 10.97900009
142829.71199989 485927.95899963 19.22800064
142829.73900032 485927.68899918 18.85700035
142829.84900093 485927.62199974 15.86200047
142829.76199913 485927.45199966 18.53000069
142830.21899986 485927.17399979 6.04600000
142829.83799934 485927.16699982 16.81500053
142829.85799980 485926.88400078 16.62299919
142830.06399918 485926.75600052 10.99499989
142830.11899948 485926.45000076 9.86400032
142830.19700050 485926.40099907 7.73099995
142830.10700035 485926.21699905 10.51500034
142830.19099998 485926.16500092 8.23299980
142829.86199951 485926.12599945 17.54800034
142829.93899918 485926.07799911 15.47500038
142829.91399956 485925.83799934 16.46299934
142829.92600060 485925.56800079 16.51600075
142830.07500076 485925.47100067 12.45400047
142830.15800095 485925.17799950 10.52700043
142830.16900063 485924.93099976 10.54500008
142830.29599953 485924.84799957 7.09399986
142830.31599998 485924.54700089 6.93800020
142830.15999985 485924.39500046 11.54500008
142830.25200081 485924.10199928 9.35099983
142829.52400017 485941.64799881 13.14299965
142829.54299927 485941.37500000 12.98700047
142829.57200050 485941.10699844 12.56299973
142829.51199913 485940.63199997 14.90299988
142829.83699989 485940.53099823 5.88999987
142829.69199944 485940.05599976 10.62899971
142829.85799980 485940.00299835 6.04300022
142829.57699966 485939.83499908 14.17000008
142829.66900063 485939.80400085 11.60000038
142829.68700027 485939.52199936 11.49899960
142829.81200027 485939.48099899 8.03899956
142829.67900085 485939.26599884 12.08600044
142829.74500084 485939.24300003 10.24100018
142829.73900032 485939.00199890 10.75599957
142829.94599915 485938.93099976 5.02400017
142829.77199936 485938.73199844 10.19400024
142829.78300095 485938.48500061 10.23499966
142829.85099983 485937.92499924 9.08600044
142829.97299957 485937.88000107 5.71000004
142829.53599930 485937.80899811 18.13999939
142829.98500061 485937.63999939 5.67700005
142829.56399918 485937.52500153 17.72299957
142829.70100021 485937.47100067 13.92099953
142829.76399994 485937.44800186 12.18200016
142830.05999947 485937.33599854 4.03000021
142829.56599998 485937.23500061 18.07500076
142829.92799950 485937.09299850 8.04599953
142830.02099991 485937.05799866 5.48199987
142829.59000015 485936.98500061 17.75099945
