142990.30000305 485686.22699738 14.05300045
142990.04199982 485686.33799744 12.40299988
142989.94300079 485686.38099670 11.77099991
142990.52899933 485686.29000092 16.78100014
142990.01000214 485686.51499939 13.46700001
142990.27500153 485686.55699921 16.36100006
142989.79799652 485686.76399994 13.32800007
142989.61499786 485686.84300232 12.16800022
142989.56099701 485687.03099823 13.09500027
142990.02100372 485686.98300171 17.20899963
142989.33899689 485687.28299713 12.89299965
142990.03700256 485687.12699890 18.46100044
142989.83799744 485687.21399689 17.21299934
142989.57700348 485687.33000183 15.55599976
142989.12899780 485687.52799988 12.73700047
142989.94000244 485687.32399750 19.04899979
142989.74900055 485687.40899658 17.84199905
142989.46099854 485687.53600311 16.04299927
142989.77999878 485687.55200195 19.26399994
142989.54399872 485687.65799713 17.77899933
142989.36399841 485687.73799896 16.65500069
142989.05899811 485687.87500000 14.73600006
142987.70800018 485688.47899628 6.26900005
142989.58599854 485687.80200195 19.31800079
142989.39199829 485687.88999939 18.10099983
142989.25399780 485687.95300293 17.23399925
142987.76899719 485688.62100220 7.95599985
142987.44200134 485688.76599884 5.92199993
142988.05500031 485688.64099884 10.90299988
142987.86199951 485688.89700317 11.00399971
142987.69300079 485688.97399902 9.95699978
142987.55100250 485689.03700256 9.07800007
142988.73100281 485688.64900208 17.54400063
142988.62200165 485688.84999847 18.03899956
142986.39499664 485690.02100372 5.42799997
142986.24900055 485690.25499725 5.82299995
142985.60500336 485690.71299744 3.11199999
142988.03600311 485689.73400116 19.16300011
142987.66600037 485689.90799713 16.89999962
142987.78099823 485690.00900269 18.81399918
142987.18499756 485690.44000244 16.35899925
142985.35199738 485691.45099640 6.35799980
142985.01999664 485691.60900116 4.34800005
142984.79299927 485691.86900330 4.14400005
142984.36299896 485692.07299805 1.55700004
142987.36599731 485690.79599762 20.86800003
142987.09600067 485691.08599854 20.48900032
142986.63999939 485691.44400024 18.82399940
142984.44200134 485692.67099762 6.95100021
142983.58200073 485693.08899689 1.80900002
142984.30100250 485692.88300323 7.22300005
142983.58100128 485693.23400116 2.93199992
142983.96600342 485693.19599915 6.38600016
142985.25599670 485692.70500183 15.11299992
142985.08799744 485692.94599915 15.35299969
142983.25499725 485694.00700378 5.75000000
142983.05000305 485694.25900269 5.70400000
142982.81199646 485694.53199768 5.49300003
142991.49800110 485684.29900360 6.80700016
142991.12500000 485684.44999695 4.33699989
142991.25299835 485684.55400085 6.39300013
142990.97399902 485684.66799927 4.54799986
142990.97599792 485684.83200073 5.84000015
142990.84700012 485684.88500214 4.99399996
142990.82399750 485685.06400299 6.16599989
142990.59899902 485685.33599854 6.08500004
142991.09700012 485685.28600311 10.54300022
142990.31999969 485685.60800171 5.48699999
142991.51899719 485685.28500366 14.63000011
142990.91799927 485685.53600311 10.72099972
142991.29399872 485685.53099823 14.34799957
142990.96800232 485685.66799927 12.23700047
142990.34200287 485685.93199921 8.18000031
142991.04000092 485685.79699707 13.93000031
142990.81300354 485685.89199829 12.46599960
142990.84500122 485686.03099823 13.84300041
142991.13400269 485686.07700348 17.01799965
142990.75700378 485686.23899841 14.60299969
142990.90200043 485686.34200287 16.81100082
142990.47499847 485686.52500153 14.08500004
142990.20800018 485686.64099884 12.36999989
142990.89399719 485686.50099945 17.97800064
142990.54499817 485686.65299988 15.74499989
142990.56800079 485686.80300140 17.14500046
142990.12400055 485686.99700165 14.31000042
142990.26899719 485687.08999634 16.43600082
142989.80500031 485687.29199982 13.50800037
142990.47599792 485687.14600372 18.89800072
142990.19899750 485687.26799774 17.14200020
142989.59799957 485687.53199768 13.34700012
142990.36599731 485687.34999847 19.40699959
142990.14800262 485687.44699860 18.03800011
142989.92900085 485687.54399872 16.65900040
142990.27700043 485687.54900360 20.09099960
142989.45999908 485687.91300201 14.94900036
142990.18800354 485687.75399780 20.80100060
142989.97799683 485687.84799957 19.48399925
142989.68800354 485687.97699738 17.66699982
142989.91300201 485688.02200317 20.20700073
142989.03500366 485688.41899872 14.72200012
142988.28800201 485688.91999817 11.34399986
142989.16999817 485688.66699982 17.95700073
142986.51899719 485689.87100220 1.50999999
142986.28900146 485689.97599792 0.07300000
142989.09200287 485688.85399628 18.65500069
142988.83999634 485688.97100067 17.09499931
142986.50499725 485690.03500366 2.64100003
142986.28700256 485690.13400269 1.30200005
142988.69100189 485689.18599701 17.30900002
142987.77300262 485689.60600281 11.64700031
142988.79799652 485689.30100250 19.23399925
142986.35700226 485690.42500305 4.21899986
142986.06400299 485690.55999756 2.41100001
142988.44000244 485689.62100220 18.23399925
142986.58100128 485690.48100281 6.84000015
142988.22599792 485689.87100220 18.09000015
142987.87500000 485690.18800354 17.13500023
142987.75199890 485690.24600220 16.37899971
142985.43599701 485691.48400116 3.45900011
142985.17500305 485691.91200256 4.22100019
142984.77700043 485692.09999847 1.81799996
142984.68699646 485692.46600342 3.78299999
142984.34100342 485692.63300323 1.69700003
142984.22399902 485692.83399963 2.12299991
142984.14800262 485692.87000275 1.66999996
142984.61000061 485692.81300354 5.71000004
142984.12100220 485693.04900360 2.78500009
142984.38899994 485693.06500244 5.52299976
142983.84200287 485693.33200073 2.25500011
142984.25299835 485693.28399658 5.88999987
142983.71800232 485693.54599762 2.70799994
142984.15399933 485693.47499847 6.41300011
142983.74500275 485693.67600250 3.97900009
142985.09400177 485693.17600250 13.22099972
142983.58200073 485694.07199860 5.46299982
142983.30200195 485694.21099854 3.80999994
142983.38500214 485694.32099915 5.46199989
142983.11199951 485694.45600128 3.86100006
142992.02600098 485683.68099976 3.76799989
142991.82900238 485684.26000214 6.32100010
142991.74199677 485684.46199799 7.04799986
142991.31900024 485684.63099670 4.25000000
142991.39499664 485684.76000214 5.98400021
142991.12899780 485685.04499817 5.60099983
142991.02600098 485685.08699799 4.92500019
142990.91699982 485685.30500031 5.55900002
142990.76799774 485685.52899933 5.84800005
142990.54699707 485685.79100037 5.73199987
142991.48100281 485685.56700134 13.05300045
142991.11799622 485685.71800232 10.69900036
142991.30000305 485685.79299927 13.04899979
142991.27600098 485685.80400085 12.88700008
142990.33999634 485686.35900116 8.10700035
142991.36799622 485686.08999634 16.00000000
142991.03399658 485686.23300171 13.85099983
142990.97699738 485686.42800140 14.81499958
142991.07900238 485686.53299713 16.61700058
142990.81999969 485686.64299774 14.96599960
142990.49199677 485686.95899963 14.20400047
142989.61599731 485687.33699799 8.62899971
142991.02799988 485686.87500000 18.75900078
142990.30300140 485687.18900299 14.15499973
142990.68399811 485687.17900085 17.77799988
142990.13300323 485687.41999817 14.28199959
142990.75700378 485687.29599762 19.39399910
142989.84600067 485687.86299896 14.92800045
142990.04299927 485688.09200287 18.60799980
142989.76399994 485688.21600342 16.86499977
142989.87300110 485688.32399750 18.76000023
142989.59300232 485688.44999695 17.01700020
142989.48699951 485688.49700165 16.35199928
142989.23400116 485688.61199951 14.76700020
142989.64199829 485688.58300018 18.50399971
142989.27500153 485688.74900055 16.22500038
142987.14700317 485689.70800018 2.98699999
142986.70800018 485689.90599823 0.25600001
142989.19599915 485688.93000031 16.86000061
142986.97599792 485689.93599701 3.08899999
142988.27400208 485689.50399780 12.34599972
142986.12999725 485690.48100281 -0.91299999
142989.08899689 485689.28800201 18.58300018
142988.96299744 485689.51100159 19.07900047
142986.83899689 485690.63500214 7.17299986
142988.42700195 485690.06400299 18.15099907
142988.46199799 485690.19200134 19.47699928
142988.09400177 485690.36399841 17.23100090
142985.69100189 485691.63899994 3.78500009
142985.47799683 485691.88899994 3.64599991
142984.93299866 485692.31199646 1.62300003
142987.35900116 485691.31900024 17.48100090
142987.18699646 485691.54900360 17.59000015
142984.62400055 485692.93000031 3.39899993
142984.41500092 485693.18699646 3.34999990
142984.68099976 485693.20200348 6.05200005
142984.09300232 485693.48699951 2.54399991
142985.59100342 485692.91100311 12.63399982
142986.06099701 485692.83499908 16.59300041
142986.11100006 485692.96600342 18.10899925
142985.22299957 485693.40299988 12.86299992
142986.05699921 485693.13099670 18.87000084
142985.85399628 485693.38700104 18.87500000
142985.12599945 485693.74900055 14.58899975
142985.67500305 485693.61699677 18.90800095
142992.29100037 485684.25499725 7.05900002
142991.99099731 485684.54299927 6.35300016
142991.82299805 485684.77200317 6.49499989
142991.55300140 485684.87999725 4.71199989
142991.64600372 485685.01999664 6.70800018
142991.50299835 485685.07800293 5.76200008
142991.25499725 485685.34799957 5.44299984
142991.72899628 485685.32099915 9.82800007
142991.48699951 485685.58599854 9.53999996
142990.87799835 485685.83699799 5.57499981
142991.45899963 485685.76499939 10.63300037
142990.60299683 485686.11900330 5.07499981
142991.29599762 485685.98400116 10.73999977
142991.98100281 485685.86000061 16.43000031
142991.05999756 485686.24700165 10.48999977
142991.54699707 485686.37699890 16.20599937
142991.38800049 485686.59500122 16.35000038
142991.16999817 485686.68800354 14.95600033
142990.97799683 485686.93900299 15.05000019
142990.76799774 485687.02899933 13.71100044
142990.82399750 485687.16000366 15.24499989
142990.18699646 485687.91100311 14.87600040
142990.13400269 485688.40799713 18.20100021
142989.91400146 485688.50599670 16.83799934
142990.22399902 485688.52400208 19.96699905
142989.78299713 485688.72000122 17.22699928
142987.59200287 485689.70600128 3.56999993
142989.92500305 485688.80300140 19.21800041
142989.65000153 485688.92600250 17.51199913
142989.56900024 485689.11599731 18.18000031
142989.42700195 485689.33599854 18.51000023
142987.65299988 485690.31099701 8.86200047
142987.62100220 485690.47699738 9.81200027
142987.58200073 485690.65899658 10.84099960
142986.62999725 485691.09799957 5.01100016
142988.31500244 485690.46700287 16.45100021
142987.03700256 485691.05999756 8.66600037
142986.98000336 485691.23899841 9.47999954
142988.35099792 485690.74099731 18.91900063
142987.63200378 485691.39499664 17.00399971
142988.02500153 485691.35900116 20.54100037
142987.89399719 485691.42199707 19.75300026
142987.73300171 485691.65000153 19.95299911
142987.27200317 485692.01999664 18.33499908
142987.07499695 485692.25399780 18.22999954
142986.66300201 485692.45300293 15.77000046
142986.09400177 485692.72699738 12.37300014
142986.18299866 485692.83200073 14.05099964
142985.89900208 485692.96900177 12.35799980
142986.32199860 485692.91999817 16.07299995
142986.06099701 485693.04699707 14.52799988
142986.34300232 485693.06600189 17.40200043
142986.12000275 485693.17400360 16.08699989
142985.92800140 485693.26899719 14.95199966
142985.75199890 485693.35399628 13.91100025
142985.50800323 485693.47299957 12.47000027
142985.79000092 485693.48000336 15.23400021
142985.57499695 485693.58399963 13.97399998
142986.17500305 485693.44400024 18.71699905
142992.55799866 485684.59100342 7.29400015
142991.72799683 485685.26300049 4.41200018
142991.83599854 485685.39199829 6.46500015
142991.56099701 485685.50399780 4.65899992
142991.69699860 485685.61399841 6.83599997
142991.88999939 485685.70400238 9.39700031
142991.24400330 485685.96900177 5.17199993
142991.79900360 485685.90299988 10.05500031
142991.48999786 485686.02899933 8.05200005
142991.00000000 485686.23400116 4.84800005
142991.95999908 485685.98999786 12.29899979
142991.49900055 485686.18199921 9.30500031
142991.47599792 485686.35500336 10.42599964
142991.31999969 485686.42199707 9.41100025
142991.16600037 485686.48500061 8.41800022
142991.89099884 485686.34700012 14.39799976
142991.41000366 485686.55000305 11.28899956
142991.15299988 485686.65899658 9.62300014
142991.08899689 485686.68599701 9.21599960
142991.64299774 485686.62400055 14.12300014
142990.83799744 485686.96600342 8.93999958
142991.43800354 485686.86299896 13.97999954
142990.63400269 485687.20600128 8.81200027
142991.56999969 485686.97599792 16.13199997
142991.28500366 485687.24700165 15.46199989
142990.91899872 485687.71399689 15.52299976
142990.75499725 485687.95600128 15.79800034
142990.39499664 485688.27300262 14.76399994
142990.61900330 485688.32900238 17.38199997
142990.40699768 485688.58100128 17.27400017
142988.28500366 485689.52899933 3.97099996
142988.04900360 485689.79599762 3.73600006
142990.07299805 485689.03399658 17.52000046
142989.23300171 485689.56700134 13.48400021
142990.18599701 485689.29100037 20.61199951
142990.18000031 485689.45700073 21.83200073
142987.84500122 485690.83899689 9.84300041
142987.11599731 485691.17600250 5.36999989
142986.29199982 485691.70700073 1.47800004
142987.37799835 485691.35800171 9.33100033
142987.19899750 485691.44200134 8.23999977
142988.68000031 485690.89299774 18.37100029
142988.23799896 485691.26300049 16.92200089
142988.80599976 485691.14600372 21.55599976
142988.65599823 485691.21800232 20.64399910
142987.95700073 485691.54900360 16.40999985
142988.37500000 485691.50000000 20.10099983
142988.25900269 485691.70600128 20.56800079
142988.05599976 485691.80300140 19.35400009
142987.74199677 485691.95300293 17.45700073
142987.53600311 485692.20300293 17.38599968
142986.98600006 485692.46600342 14.08800030
142986.72799683 485692.58999634 12.54699993
142987.34100342 485692.43800354 17.30900002
142987.04199982 485692.58300018 15.51900005
142986.71600342 485692.73799896 13.57199955
142987.77999878 485692.37200165 21.06299973
142986.90399933 485692.79499817 15.83500004
142986.72299957 485693.03399658 15.92800045
142986.48100281 485693.15299988 14.48999977
142986.30699921 485693.23699951 13.45800018
142987.13500214 485692.99099731 19.60499954
142986.75099945 485693.17900085 17.32699966
142986.29799652 485693.40000153 14.64099979
142987.01499939 485693.19000244 19.97299957
142986.77500153 485693.30699921 18.55999947
142986.96399689 485693.36900330 20.87000084
142986.88700104 485693.40699768 20.41399956
142986.71600342 485693.49199677 19.40299988
142986.80799866 485693.58599854 21.03000069
142992.87200165 485684.69200134 6.73400021
142992.76899719 485685.24500275 10.01900005
142992.54199982 485685.49500275 9.75199986
142992.41500092 485685.54799652 8.91300011
142991.77899933 485686.30599976 8.60499954
142991.18399811 485686.55200195 4.73299980
142992.53600311 485686.14299774 14.70199966
142992.17800140 485686.29199982 12.37500000
142992.28700256 485686.41899872 14.42300034
142991.90499878 485686.58000183 11.94600010
142991.70500183 485686.66400146 10.65999985
142991.77600098 485686.79900360 12.39299965
142991.14900208 485687.22799683 9.61999989
142990.97299957 485687.30300140 8.48799992
142991.88999939 485687.07599640 15.65100002
142991.80599976 485687.26899719 16.32900047
142991.58300018 485687.51399994 16.05400085
142991.23999786 485687.66200256 13.86999989
142991.48600006 485687.71099854 16.65099907
142991.19100189 485687.83899689 14.77799988
142991.01399994 485688.07800293 14.89799976
142990.96700287 485688.26799774 15.90799999
142990.70999908 485688.53199768 15.45100021
142988.70899963 485689.58899689 4.19600010
142988.57399750 485689.65000153 3.35100007
142988.22499847 485689.95500183 2.32999992
142991.00900269 485688.86299896 20.92399979
142990.54699707 485689.06999969 18.04000092
142990.84999847 485689.07900238 21.06200027
142989.72200012 485689.75499725 15.34099960
142989.27899933 485689.95700073 12.58199978
142990.33399963 485689.63500214 20.35600090
142989.89399719 485689.83599854 17.63299942
142990.37200165 485689.76799774 21.74699974
142990.08200073 485689.90200043 19.95400047
142989.92500305 485689.97399902 18.98699951
142989.75000000 485690.20999908 19.11300087
142989.12300110 485690.49800110 15.26799965
142989.50499725 485690.47200012 18.76600075
142987.39499664 485691.59500122 6.96299982
142987.25299835 485691.66100311 6.09399986
142988.45999908 485691.25299835 14.65400028
142987.61299896 485691.64800262 9.49600029
142988.65599823 485691.31900024 17.06900024
142988.47399902 485691.40399933 15.96599960
142988.19599915 485691.53399658 14.27200031
142987.85099792 485691.69599915 12.17599964
142988.56400299 485691.52300262 17.75900078
142988.44999695 485691.57800293 17.06900024
142988.26300049 485691.66600037 15.93400002
142988.02100372 485691.77899933 14.47099972
142988.89800262 485691.50599670 20.86800003
142988.75000000 485691.57599640 19.97500038
142988.08599854 485691.88999939 15.96000004
142987.84500122 485692.00499725 14.49899960
142987.28199768 485692.27100372 11.09300041
142988.82199860 485691.69999695 21.63100052
142988.49099731 485691.85800171 19.63599968
142988.30599976 485691.94599915 18.52300072
142987.95700073 485692.11100006 16.42099953
142987.72599792 485692.22200012 15.02600002
142987.61799622 485692.41500092 15.47700024
142988.02400208 485692.37100220 19.07900047
142987.15100098 485692.79000092 13.84500027
142988.17099762 485692.44100189 21.04999924
142987.55200195 485692.73999786 17.34399986
142987.40799713 485692.80899811 16.48600006
142987.92700195 485692.71600342 20.80500031
142987.42400360 485692.95899963 17.80699921
142987.23100281 485693.05300140 16.65299988
142987.72699738 485692.96299744 20.78300095
142987.23999786 485693.20200348 17.89100075
142987.41300201 485693.26100159 20.02899933
142987.25700378 485693.33699799 19.11100006
142986.54900360 485693.68299866 14.91399956
142987.31300354 485693.45800018 20.59399986
142986.99099731 485693.61599731 18.69099998
142986.41500092 485693.90100098 15.28199959
142986.97699738 485693.76899719 19.73600006
142986.97899628 485693.90699768 20.83300018
142985.38200378 485694.99800110 13.74199963
142985.19499969 485695.24800110 13.86600018
142992.77999878 485685.34600067 7.52099991
142992.85399628 485685.47299957 9.22000027
142992.69499969 485685.71700287 9.55399990
142991.58899689 485686.32599640 3.54200006
142991.47299957 485686.37300110 2.78099990
142992.52100372 485686.10900116 10.90100002
142992.27300262 485686.36299896 10.45800018
142992.29000092 485686.53199768 11.93200016
142992.16699982 485686.58399963 11.13099957
142992.01599884 485686.64600372 10.15900040
142991.94799805 485686.84100342 10.99100018
142991.69300079 485686.94799805 9.34200001
142991.76899719 485687.08000183 11.10400009
142991.62799835 485687.13899994 10.19699955
142991.48400116 485687.20099640 9.26500034
142991.40000153 485687.23500061 8.72599983
142991.36900330 485687.41200256 9.79800034
142991.22499847 485687.63500214 10.11999989
142991.94999695 485687.47599792 15.92399979
142991.45999908 485687.84300232 14.01299953
142991.83300018 485687.84500122 17.65500069
142991.25299835 485688.09700012 13.96599960
142991.88800049 485687.98799896 19.28400040
142991.59899902 485688.11399841 17.46299934
142991.83499908 485688.16000366 20.11199951
142991.53700256 485688.29100037 18.22599983
142991.34799957 485688.37300110 17.03599930
142991.16000366 485688.45600128 15.84500027
142989.38200378 485689.23799896 4.62300014
142990.87799835 485688.74700165 15.35200024
142990.67199707 485688.98500061 15.21199989
142990.42099762 485689.25299835 14.84099960
142989.88400269 485689.49299622 11.48700047
142990.52500153 485689.35299683 16.63299942
142990.19899750 485689.50000000 14.58300018
142989.63600159 485689.75199890 11.07900047
142991.12699890 485689.25000000 21.66300011
142990.88700104 485689.35800171 20.17499924
142990.73600006 485689.42600250 19.22999954
142990.40799713 485689.57299805 17.19700050
142990.46199799 485689.70500183 18.72999954
142989.90299988 485689.95800018 15.27000046
142989.57499695 485690.10700226 13.23299980
142990.66400146 485689.76699829 21.16600037
142990.41899872 485689.87899780 19.65200043
142990.14299774 485690.00499725 17.94599915
142989.92600250 485690.10299683 16.61599922
142990.06500244 485690.19699860 18.68199921
142989.85299683 485690.29299927 17.36700058
142989.37100220 485690.51300049 14.40499973
142989.83999634 485690.44999695 18.45000076
142989.72699738 485690.64700317 18.87400055
142987.61499786 485691.62200165 5.92600012
142989.71299744 485690.80300140 19.94499969
142988.90100098 485691.18000031 14.97999954
142989.46299744 485691.07499695 19.62400055
142989.32399750 485691.13999939 18.77899933
142986.54799652 485692.43499756 1.86600006
142989.35700226 485691.28399658 20.20700073
142988.96900177 485691.61100006 18.97100067
142988.67700195 485691.74900055 17.19400024
142988.76100159 485691.86799622 18.94199944
142988.39499664 485692.04199982 16.72999954
142987.84100342 485692.30300140 13.38700008
142988.96800232 485691.91000366 21.27400017
142988.57499695 485692.09700012 18.90699959
142988.38400269 485692.18699646 17.75300026
142986.13300323 485693.25800323 4.18800020
142988.85900116 485692.10900116 21.75699997
142988.74500275 485692.16300201 21.07699966
142988.43699646 485692.30999756 19.22599983
142987.85099792 485692.58999634 15.70300007
142988.48799896 485692.42700195 20.61599922
142988.15200043 485692.58899689 18.60199928
142987.69699860 485692.80599976 15.87800026
142988.03399658 485692.80500031 19.14500046
142987.52700043 485693.05000305 16.10899925
142987.50299835 485693.21199799 17.13299942
142987.36499786 485693.27799988 16.30999947
142987.49900055 485693.36100006 18.25399971
142986.61499786 485693.79100037 13.00000000
142986.45600128 485694.02200317 13.23600006
142987.34600067 485693.73100281 19.63199997
142986.50900269 485694.14299774 14.68400002
142986.42299652 485694.32800293 15.28100014
142985.71800232 485694.97299957 13.43799973
142985.52100372 485695.22799683 13.50699997
142993.31400299 485685.14499664 7.34399986
142993.08200073 485685.41699982 7.19099998
142992.96199799 485685.62400055 7.62900019
142992.98600006 485685.79199982 9.14400005
142993.05400085 485685.91899872 10.78699970
142992.67500305 485686.07199860 8.31400013
142992.61900330 485686.26300049 9.22700024
142992.68900299 485686.38700104 10.86999989
142992.42299652 485686.49600220 9.13599968
142992.00000000 485687.01699829 9.06200027
142992.17199707 485687.10600281 11.40799999
142991.58599854 485687.51899719 8.90699959
142990.41699982 485688.17400360 2.65400004
142990.24700165 485688.73500061 5.33199978
142991.73799896 485688.25800323 16.10000038
142991.39600372 485688.40499878 13.94600010
142991.91899872 485688.32700348 18.39800072
142991.91999817 485688.49299622 19.69799995
142991.61000061 485688.62899780 17.74399948
142991.16600037 485688.82299805 14.94200039
142991.44899750 485688.84700012 17.88100052
142990.56999969 485689.39399719 13.57699966
142990.19799805 485689.56099701 11.24300003
142990.36599731 485689.63200378 13.43599987
142989.98500061 485689.80300140 11.06000042
142991.17700195 485689.43499756 19.77300072
142990.84600067 485689.58399963 17.70800018
142990.52100372 485689.72899628 15.69099998
142991.23699951 485689.56600189 21.36400032
142990.69000244 485689.81300354 17.96299934
142990.41000366 485690.09100342 17.40299988
142989.97499847 485690.29000092 14.70499992
142990.68299866 485690.12400055 20.30100060
142989.73799896 485690.55500031 14.46800041
142990.63600159 485690.29799652 21.17099953
142990.00900269 485690.58399963 17.31800079
142990.54499817 485690.48400116 21.74500084
142989.17600250 485691.26499939 14.50800037
142989.59700012 485691.22599792 18.27599907
142989.57700348 485691.39700317 19.40699959
142989.36399841 485691.49600220 18.10700035
142989.44899750 485691.59799957 19.72599983
142989.31500244 485691.66100311 18.91399956
142988.65299988 485691.97100067 14.89599991
142989.32299805 485691.81999969 20.22299957
142989.21700287 485692.01100159 20.66500092
142988.59700012 485692.30400085 16.92499924
142988.50299835 485692.50000000 17.51600075
142987.77100372 485692.98899841 14.20499992
142987.42099762 485693.15599823 12.11200047
142987.26699829 485693.23000336 11.18299961
142988.79299927 485692.65899658 21.55699921
142987.55699921 485693.40499878 15.34399986
142987.74199677 485693.46299744 17.58300018
142987.53099823 485693.56500244 16.33499908
142987.70899963 485693.63200378 18.58699989
142987.33200073 485693.81500244 16.34300041
142987.44000244 485693.90799713 18.12299919
142987.19400024 485694.02999878 16.65299988
142987.33799744 485694.09600067 18.58499908
142986.70300293 485694.40799713 14.83300018
142987.27100372 485694.27500153 19.30200005
142986.54100037 485694.63600159 15.00199986
142986.37500000 485694.86900330 15.19400024
142985.96299744 485695.36900330 15.07499981
142993.12699890 485686.02899933 7.29400015
142992.64099884 485686.22499847 4.08799982
142993.65100098 485685.98000336 12.00699997
142992.96099854 485686.26000214 7.46600008
142993.40799713 485686.23500061 11.61499977
142993.19300079 485686.32299805 10.20400047
142992.85299683 485686.46099854 7.98500013
142993.30599976 485686.43699646 12.19900036
142992.69499969 485686.68800354 8.21100044
142993.20300293 485686.64900208 12.83500004
142992.60700226 485686.89499664 8.95199966
142992.52700043 485686.92800140 8.44099998
142992.37400055 485687.16600037 8.77700043
142992.19899750 485687.23799896 7.64699984
142991.95200348 485687.34100342 6.04600000
142992.33799744 485687.33799744 9.76000023
142992.15000153 485687.41600037 8.54699993
142991.25000000 485687.79299927 2.72199988
142991.40599823 485687.90399933 5.10200024
142991.21900177 485688.13700104 5.08699989
142990.75700378 485688.49400330 3.36999989
142990.60500336 485688.55899811 2.39100003
142990.55699921 485688.73600006 3.29099989
142990.47000122 485688.77400208 2.73000002
142990.36100006 485688.81999969 2.03299999
142991.14299774 485688.66000366 8.39000034
142990.87599945 485688.77500153 6.69099998
142992.25199890 485688.34300232 16.71899986
142992.12000275 485688.55599976 17.09300041
142992.16300201 485688.69799805 18.60300064
142991.68900299 485688.90599823 15.60499954
142991.34500122 485689.21099854 14.62899971
142990.85199738 485689.42800140 11.52499962
142991.84300232 485689.13999939 18.91900063
142991.11499786 485689.46299744 14.34099960
142991.75299835 485689.33200073 19.53499985
142991.36799622 485689.50299835 17.12700081
142991.25800323 485689.71299744 17.67900085
142990.65000153 485689.98600006 13.87600040
142991.44899750 485689.79399872 20.14999962
142990.99600220 485689.99700165 17.32900047
142990.75800323 485690.10500336 15.84799957
142990.95500183 485690.16000366 18.19000053
142990.35299683 485690.43299866 14.45100021
142990.93299866 485690.33300018 19.32999992
142990.59500122 485690.48799896 17.23699951
142990.28299713 485690.63099670 15.30599976
142991.07900238 485690.41200256 21.32699966
142990.74400330 485690.56500244 19.26899910
142990.55100250 485690.65299988 18.07799911
142990.77600098 485690.70300293 20.63599968
142990.66100311 485690.90000153 21.04599953
142988.91300201 485691.87000275 11.60499954
142988.58000183 485692.02600098 9.56000042
142989.26999664 485691.86199951 14.98900032
142988.40799713 485692.26300049 9.72700024
142989.71700287 485691.80300140 18.87500000
142989.12599945 485692.08000183 15.28400040
142988.85500336 485692.20600128 13.63799953
142987.75099945 485692.72299957 6.92500019
142988.05999756 485692.73600006 9.99499989
142987.85900116 485692.82900238 8.77999973
142986.80799866 485693.32299805 2.40700006
142988.89800262 485692.63500214 17.35799980
142988.78800201 485692.83599854 17.85700035
142988.08599854 485693.17199707 13.62699986
142988.97399902 485692.89800262 20.14399910
142988.66899872 485693.04499817 18.31299973
142988.48000336 485693.13700104 17.17600060
142988.87000275 485693.10800171 20.75200081
142988.50000000 485693.28500366 18.54299927
142988.20800018 485693.42700195 16.79000092
142988.36599731 485693.48899841 18.82200050
142988.05899811 485693.63899994 16.98200035
142987.76599884 485693.77999878 15.23900032
142987.62500000 485694.00700378 15.61900043
142987.18399811 485694.22100067 13.00300026
142987.98899841 485693.96900177 18.87800026
142987.20700073 485694.35099792 14.23099995
142987.01899719 485694.44300079 13.11600018
142987.59799957 485694.30899811 17.70599937
142987.48600006 485694.36499786 17.03599930
142986.91400146 485694.64299774 13.65900040
142987.63800049 485694.42800140 19.01899910
142987.52600098 485694.48300171 18.35799980
142987.33999634 485694.57599640 17.25799942
142987.34400177 485694.72699738 18.49200058
142987.11599731 485694.84100342 17.14200020
142986.56500244 485695.11399841 13.90400028
142986.97399902 485695.06199646 17.47900009
142986.69100189 485695.20300293 15.81799984
142986.29599762 485695.40000153 13.50100040
142986.49400330 485695.44400024 15.77400017
142986.32599640 485695.52899933 14.78899956
142986.20099640 485695.74199677 15.23900032
142986.16600037 485695.90599823 16.16300011
142985.97699738 485696.00099945 15.05700016
142985.91100311 485696.17099762 15.73799992
142993.66899872 485686.03399658 8.37100029
142993.72499847 485686.33499908 11.24100018
142992.63700104 485686.77700043 4.09999990
142993.65899658 485686.52600098 12.08199978
142993.50000000 485686.59100342 11.04199982
142993.34500122 485686.65399933 10.02600002
142992.45400238 485687.01899719 4.18800020
142993.41000366 485686.79399872 11.74100018
142993.14199829 485686.90499878 9.98700047
142992.51599884 485687.16200256 5.90999985
142993.26499939 485687.02799988 12.14599991
142993.00900269 485687.13500214 10.48299980
142992.46299744 485687.51399994 8.12699986
142991.77500153 485687.80100250 3.65799999
142992.44400024 485687.69899750 9.34000015
142992.34500122 485687.73899841 8.71199989
142992.24199677 485687.78199768 8.04800034
142991.70099640 485688.00900269 4.55000019
142992.15899658 485687.97100067 8.70100021
142992.04100037 485688.02100372 7.93800020
142991.53600311 485688.23400116 4.69099998
142991.28299713 485688.34100342 3.06200004
142992.24199677 485688.09999847 10.49499989
142991.87699890 485688.25499725 8.15200043
142991.05899811 485688.60199738 2.90199995
142992.17199707 485688.28199768 11.24400043
142991.55699921 485688.54599762 7.29799986
142991.13600159 485688.89700317 5.93699980
142990.74199677 485689.06600189 3.42300010
142990.50599670 485689.16699982 1.90999997
142991.95200348 485688.70899963 12.40400028
142991.14399719 485689.05799866 7.26399994
142990.55599976 485689.31199646 3.52099991
142990.30400085 485689.42099762 1.90400004
142991.75000000 485688.95500183 12.35200024
142990.72499847 485689.40100098 5.84200001
142992.17700195 485688.93199921 16.31299973
142991.76599884 485689.11100006 13.71899986
142991.59999847 485689.18299866 12.67000008
142991.43499756 485689.25599670 11.62600040
142990.60600281 485689.61900330 6.37400007
142992.33599854 485689.01899719 18.54299927
142991.78399658 485689.26100159 15.05300045
142991.64099884 485689.32499695 14.15699959
142991.59500122 485689.49199677 15.00599957
142991.17900085 485689.67500305 12.39200020
142991.03800201 485689.73899841 11.49899960
142991.74700165 485689.58000183 17.16699982
142991.07700348 485689.87799835 12.96100044
142991.09899902 485690.02799988 14.32600021
142990.91000366 485690.11100006 13.15200043
142990.68499756 485690.21299744 11.74199963
142990.27100372 485690.39700317 9.15100002
142991.41000366 485690.05300140 17.55400085
142990.76100159 485690.49400330 14.64799976
142990.65399933 485690.54199982 13.98299980
142991.21800232 485690.45300293 18.78199959
142990.83000183 485690.62999725 16.37599945
142990.53900146 485690.76200104 14.56900024
142990.54000092 485690.90699768 15.72099972
142989.11100006 485691.71199799 8.06700039
142988.29799652 485692.08599854 3.04900002
142989.49800110 485691.68099976 11.57999992
142988.90799713 485691.95300293 7.95400000
142988.91500092 485692.11599731 9.29699993
142988.49700165 485692.30999756 6.72800016
142989.90000153 485691.81800079 16.53700066
142988.60600281 485692.57499695 9.83500004
142989.36699677 485692.37400055 15.67700005
142989.10099792 485692.49900055 14.05900002
142988.67400360 485692.69999695 11.45300007
142989.25499725 485692.57700348 16.15999985
142988.06900024 485693.27999878 10.07699966
142989.32399750 485692.83399963 18.80400085
142989.19699860 485692.89299774 18.03800011
142989.13999939 485693.07499695 18.88899994
142989.27999878 485693.16699982 20.96100044
142988.82099915 485693.38700104 18.21299934
142988.66999817 485693.45999908 17.30200005
142989.10099792 485693.39399719 20.98200035
142988.94999695 485693.46700287 20.08399963
142988.54699707 485693.66200256 17.67300034
142988.27200317 485693.79399872 16.03100014
142988.84899902 485693.67199707 20.69799995
142988.71700287 485693.73600006 19.90999985
142987.77600098 485694.33399963 15.38899994
142987.22599792 485694.60099792 12.12800026
142987.73100281 485694.50199890 16.25499916
142987.49600220 485694.75599670 15.94299984
142987.09200287 485694.95500183 13.55399990
142987.17600250 485695.07299805 15.27799988
142987.31500244 485695.15499878 17.27700043
142986.76899719 485695.42500305 14.06900024
142987.28500366 485695.31400299 18.22400093
142986.97399902 485695.46900177 16.40500069
142986.58100128 485695.81400299 15.25000000
142986.50099945 485695.85399628 14.78400040
142993.82299805 485686.23699951 8.18099976
142993.83300018 485686.39299774 9.47299957
142993.62000275 485686.47899628 8.07499981
142993.41899872 485686.72200012 8.01700020
142992.82199860 485686.96499634 4.09000015
142993.65399933 485686.79900360 10.87699986
142993.48899841 485686.86599731 9.79300022
142992.61799622 485687.22200012 4.09800005
142992.31800079 485687.34400177 2.13899994
142992.41799927 485687.48100281 4.17600012
142992.19699860 485687.57299805 2.73399997
142992.06999969 485687.62400055 1.90699995
142993.63800049 485687.13300323 13.28899956
142993.56199646 485687.16300201 12.80099964
142993.30500031 485687.26999664 11.12899971
142992.82199860 485687.46900177 8.00000000
142992.23799896 485687.70999908 4.19999981
142992.97100067 485687.58499908 10.32900047
142991.83399963 485688.05699921 2.96600008
142992.67099762 485687.86199951 9.55900002
142992.53900146 485687.91699982 8.70899963
142993.03299713 485687.87400055 13.15600014
142992.33999634 485688.16600037 8.69600010
142991.90399933 485688.34899902 5.89400005
142991.68000031 485688.44300079 4.45499992
142991.52200317 485688.50900269 3.43499994
142992.81500244 485688.11699677 12.91699982
142992.43699646 485688.27600098 10.48999977
142991.72599792 485688.57700348 5.92799997
142991.32599640 485688.74600220 3.36100006
142992.27899933 485688.51899719 10.83800030
142991.53900146 485688.83300018 6.10099983
142991.50900269 485689.01200104 7.19199991
142990.95400238 485689.24900055 3.64899993
142992.81199646 485688.61000061 16.70400047
142990.68800354 485689.52600098 3.19700003
142992.49500275 485688.90899658 15.94900036
142992.33100128 485688.98000336 14.90699959
142991.85099792 485689.18900299 11.86699963
142990.37000275 485689.83200073 2.46700001
142992.22100067 485689.18399811 15.41399956
142991.72200012 485689.40100098 12.25699997
142991.91400146 485689.46900177 14.64599991
142992.24400330 485689.47799683 17.91399956
142992.08200073 485689.70899963 18.13400078
142991.87699890 485689.79900360 16.85000038
142991.27799988 485690.06500244 13.09099960
142991.27300262 485690.23699951 14.35200024
142991.11499786 485690.30599976 13.37300014
142990.87699890 485690.41300201 11.88399982
142991.18599701 485690.42099762 14.94999981
142990.84200287 485690.74199677 14.08600044
142989.25199890 485691.60900116 5.38199997
142990.74199677 485691.08999634 15.82199955
142990.53500366 485691.18499756 14.53800011
142989.93800354 485691.60299683 11.97999954
142989.65899658 485691.73100281 10.25800037
142989.19599915 485691.94100189 7.41099977
142989.70400238 485691.87400055 11.81299973
142989.48899841 485691.97399902 10.49199963
142988.94000244 485692.22499847 7.11999989
142989.20700073 485692.26399994 10.00199986
142989.07399750 485692.32399750 9.18799973
142988.68199921 485692.50499725 6.78700018
142990.04199982 485692.02700043 16.27000046
142989.67500305 485692.19799805 14.02700043
142989.53299713 485692.42400360 14.38899994
142989.21600342 485692.72100067 13.62100029
142988.87799835 485692.87899780 11.56900024
142988.28800201 485693.15599823 7.99100018
142989.48600006 485692.73999786 16.37999916
142989.13099670 485692.90699768 14.23200035
142988.97000122 485693.13300323 14.41300011
142988.06099701 485693.56199646 8.92300034
142989.48100281 485693.04299927 18.67399979
142989.36599731 485693.25800323 19.22699928
142989.02999878 485693.72000122 19.53199959
142988.39600372 485694.02500153 15.74400043
142987.96299744 485694.37400055 14.25199986
142987.71700287 485694.49299622 12.78499985
142988.06099701 485694.47499847 15.96800041
142987.84400177 485694.57900238 14.69099998
142987.73100281 485694.77600098 15.10799980
142987.64099884 485694.81900024 14.57400036
142987.53600311 485694.87000275 13.94999981
142987.98300171 485694.81099701 17.82200050
142987.62000275 485694.98999786 15.66800022
142987.42600250 485695.08300018 14.52999973
142987.18199921 485695.20300293 13.08500004
142987.39700317 485695.25199890 15.54300022
142987.68000031 485695.25399780 18.32099915
142987.35099792 485695.41899872 16.38400078
142986.99500275 485695.59400177 14.30200005
142986.99299622 485695.89099884 16.58900070
142986.60700226 485696.08499908 14.33500004
142986.53399658 485696.25800323 14.96399975
142993.67900085 485686.14700317 2.11700010
142993.47000122 485686.41500092 2.16400003
142994.38700104 485686.20899963 9.46399975
142994.06600189 485686.33599854 7.34999990
142993.32199860 485686.63400269 2.42100000
142994.15200043 485686.46900177 9.19699955
142993.80300140 485686.60800171 6.90399981
142993.18099976 485686.85800171 2.79500008
142993.95600128 485686.70500183 9.10799980
142992.99299622 485687.09200287 2.77999997
142993.74600220 485686.96600342 9.09399986
142993.15799713 485687.20400238 5.23799992
142992.79699707 485687.34999847 2.87299991
142993.53900146 485687.21900177 9.03800011
142993.38700104 485687.27999878 8.05700016
142992.98200226 485687.44499969 5.40299988
142993.93800354 485687.21800232 12.90200043
142993.64299774 485687.33799744 10.98700047
142993.33300018 485687.46700287 8.96199989
142992.89099884 485687.64800262 6.08799982
142992.62799835 485687.75599670 4.38100004
142993.10500336 485687.73100281 8.80399990
142992.63999939 485687.92299652 5.78399992
142992.28900146 485688.06800079 3.50300002
142993.18000031 485687.86199951 10.53400040
142993.01100159 485687.93199921 9.44299984
142992.44799805 485688.16600037 5.80000019
142992.09700012 485688.31300354 3.53200006
142992.16100311 485688.44000244 5.14499998
142991.99900055 485688.50800323 4.09700012
142992.55500031 485688.43900299 8.93700027
142992.32599640 485688.53399658 7.46600008
142991.99600220 485688.67299652 5.35099983
142991.73600006 485688.78299713 3.67499995
142993.23500061 485688.31400299 14.57600021
142992.90799713 485688.45300293 12.47500038
142992.65799713 485688.55999756 10.86800003
142992.35199738 485688.69000244 8.90499973
142992.15899658 485688.77100372 7.67399979
142993.40499878 485688.41500092 16.99900055
142992.97699738 485688.59799957 14.26599979
142992.70999908 485688.71299744 12.55500031
142992.18800354 485688.93599701 9.21199989
142993.24800110 485688.62999725 17.13699913
142993.01100159 485688.73300171 15.62300014
142992.80000305 485688.82199860 14.28100014
142992.59300232 485688.91300201 12.96000004
142992.41200256 485688.98999786 11.81299973
142993.09300232 485688.86799622 17.47900009
142992.74600220 485689.01799774 15.26799965
142992.57099915 485689.09300232 14.16600037
142990.69599915 485689.90299988 2.24200010
142992.05500031 485689.46700287 12.03699970
142990.61100006 485690.09400177 2.89100003
142992.57499695 485689.39600372 16.53599930
142992.33799744 485689.49900055 15.03499985
142991.84200287 485689.71600342 11.90699959
142992.55400085 485689.55200195 17.54700089
142992.32199860 485689.65499878 16.07600021
142992.09999847 485689.75099945 14.67599964
142992.38700104 485689.79399872 17.79100037
142992.06400299 485689.93599701 15.76200008
142991.85800171 485690.02799988 14.46199989
142991.64399719 485690.12100220 13.12800026
142991.75599670 485690.23400116 15.07999992
142991.44200134 485690.37300110 13.11600018
142991.29100037 485690.59700012 13.37199974
142990.50000000 485691.11299896 9.69299984
142989.54000092 485691.70099640 4.92199993
142991.11599731 485691.29000092 17.03700066
142990.97599792 485691.35299683 16.17200089
142990.89299774 485691.54699707 16.86000061
142990.12000275 485691.90100098 12.09200001
142989.75399780 485692.06700134 9.84200001
142989.19100189 485692.32499695 6.37300014
142990.71299744 485691.79599762 17.02599907
142989.83000183 485692.20099640 11.61600018
142989.46700287 485692.36799622 9.38899994
142988.73000336 485692.70700073 4.86600018
142990.29499817 485692.13099670 15.57800007
142989.45500183 485692.52100372 10.43599987
142989.94699860 485692.45600128 14.70499992
142989.17500305 485692.81500244 9.99499989
142989.85099792 485692.64600372 15.23799992
142989.23300171 485692.93299866 11.48400021
142989.03600311 485693.17700195 11.44799995
142988.64600372 485693.36100006 9.08100033
142989.74099731 485692.99199677 16.85600090
142988.02500153 485693.96299744 7.72800016
142987.32399750 485694.29399872 3.50399995
142987.99700165 485694.13700104 8.79399967
142989.65200043 485693.49500275 19.87700081
142987.82800293 485694.52200317 10.13300037
142987.56400299 485694.64900208 8.55099964
142987.28500366 485694.78099823 6.89099979
142988.57599640 485694.45300293 16.84399986
142988.15899658 485694.65399933 14.36800003
142988.06199646 485694.70099640 13.79300022
142988.51599884 485694.63099670 17.64299965
142988.06500244 485694.84899902 14.97399998
142987.91899872 485695.07199860 15.27600002
142987.65200043 485695.20300293 13.69400024
142987.23300171 485695.40699768 11.22200012
142987.58200073 485695.39600372 14.51700020
142987.33699799 485695.51699829 13.07400036
142987.96800232 485695.34400177 17.85700035
142987.44300079 485695.60299683 14.76900005
142987.16699982 485695.73999786 13.14299965
142987.46600342 485695.74900055 16.11100006
142987.27200317 485695.84600067 14.96800041
142987.01300049 485695.97299957 13.45800018
142987.41000366 485695.91600037 16.88299942
142987.12699890 485696.05899811 15.22000027
142986.96099854 485696.28399658 15.35299969
142994.24500275 485686.22000122 2.94600010
142994.02700043 485686.97599792 6.68400002
142993.41100311 485687.22299957 2.62599993
142994.02100372 485687.15499878 8.01799965
142993.80500031 485687.24199677 6.59800005
142993.61100006 485687.32099915 5.32299995
142994.20700073 485687.24900055 10.55399990
142994.00099945 485687.33300018 9.20600033
142993.57299805 485687.50800323 6.40299988
142994.00000000 485687.49500275 10.45100021
142993.77700043 485687.58699799 8.99199963
142993.37400055 485687.75299835 6.36199999
142993.27200317 485687.79399872 5.69600010
142993.20899963 485687.98999786 6.59499979
142993.74299622 485687.93099976 11.32800007
142993.02300262 485688.23100281 6.65299988
142992.53600311 485688.43299866 3.49099994
142993.55699921 485688.16500092 11.32499981
142992.82800293 485688.47000122 6.61399984
142993.43699646 485688.37500000 11.80200005
142992.76100159 485688.65899658 7.43800020
142992.62400055 485688.71800232 6.55700016
142992.08599854 485688.94400024 3.08200002
142993.11599731 485688.67600250 11.00500011
142992.39800262 485688.98100281 6.38199997
142992.22299957 485689.05300140 5.26599979
142993.69300079 485688.60299683 16.04000092
142992.94699860 485688.92099762 11.26599979
142992.04900360 485689.30300140 5.50099993
142993.45099640 485688.85500336 15.64400005
142992.35099792 485689.32700348 8.61100006
142991.86599731 485689.53399658 5.51599979
142993.25099945 485689.11299896 15.69799995
142992.47399902 485689.59999847 11.92899990
142991.85700226 485689.86699677 7.99800014
142992.78900146 485689.61900330 15.14099979
142992.88099670 485689.72699738 16.87299919
142992.22599792 485690.01399994 12.73400021
142992.39499664 485690.10700226 15.09200001
142992.12699890 485690.22499847 13.41300011
142990.26399994 485691.21199799 2.95700002
142991.66300201 485690.74700165 12.94699955
142990.19100189 485691.40399933 3.72700000
142990.68099976 485691.50700378 9.28999996
142989.79699707 485691.90599823 3.78500009
142990.77100372 485691.61299896 10.98299980
142991.40000153 485691.48200226 16.08900070
142989.06999969 485692.54299927 1.66700006
142991.42600250 485691.62799835 17.45400047
142990.87200165 485692.04499817 15.32100010
142990.00199890 485692.44599915 9.96100044
142989.88899994 485692.49800110 9.27700043
142989.58000183 485692.63899994 7.37400007
142990.71600342 485692.26100159 15.47099972
142990.53600311 485692.34400177 14.36600018
142989.73699951 485692.71199799 9.46899986
142989.46800232 485692.83599854 7.81799984
142989.79599762 485692.85299683 11.12399960
142989.10800171 485693.17199707 6.92299986
142990.54199982 485692.65200043 16.79100037
142990.26300049 485692.78099823 15.09899998
142989.44400024 485693.16300201 10.10400009
142988.48699951 485693.60900116 4.26499987
142990.34100342 485692.89499664 16.72900009
142989.79699707 485693.15000153 13.42199993
142989.09899902 485693.47599792 9.18999958
142988.48300171 485693.76499939 5.43100023
142988.28299713 485693.85800171 4.21999979
142990.19899750 485693.10299683 16.96400070
142989.91500092 485693.23500061 15.24100018
142989.30300140 485693.52400208 11.52900028
142989.04299927 485693.64700317 9.94400024
142988.62999725 485693.83999634 7.45200014
142989.18199921 485693.74600220 12.06099987
142988.80500031 485693.92400360 9.78499985
142988.62599945 485694.00900269 8.70100021
142988.20899963 485694.36399841 7.41300011
142987.82499695 485694.54699707 5.09899998
142989.31099701 485693.99199677 15.21700001
142988.44000244 485694.40799713 9.97999954
142988.33200073 485694.45899963 9.32699966
142987.66799927 485694.77500153 5.33699989
142988.33000183 485694.61499786 10.53299999
142987.98100281 485694.78299713 8.43500042
142987.55300140 485694.98899841 5.86800003
142987.33399963 485695.09200287 4.56099987
142988.05200195 485694.89900208 10.02299976
142987.48899841 485695.16999817 6.65700006
142987.32599640 485695.39299774 6.79400015
142988.35700226 485695.19300079 15.26599979
142987.98500061 485695.37500000 13.05700016
142988.56600189 485695.25099945 17.74699974
142988.15799713 485695.45099640 15.32800007
142987.76100159 485695.64600372 12.98299980
142987.60700226 485695.72100067 12.06799984
142988.29299927 485695.52400208 17.21899986
142987.99900055 485695.66999817 15.47500038
142987.82299805 485695.75599670 14.44600010
142987.70300293 485695.81500244 13.73900032
142987.39099884 485695.96800232 11.89299965
142988.15899658 485695.74600220 17.63500023
142987.55200195 485696.04699707 14.06400013
142987.61399841 485696.15699768 15.51000023
142987.45300293 485696.23600006 14.57400036
142987.56199646 485696.32399750 16.32699966
142987.44499969 485696.38500214 15.63199997
142987.36699677 485696.56099701 16.26700020
142987.26100159 485696.61599731 15.64299965
142994.41100311 485687.04699707 6.84000015
142993.80699921 485687.28900146 2.84699988
142994.12899780 485687.33100128 6.29899979
142993.69699860 485687.50499725 3.45099998
142993.55899811 485687.55999756 2.54299998
142994.66699982 485687.29299927 11.21700001
142993.90499878 485687.60199738 6.22700024
142993.49199677 485687.76999664 3.51500010
142994.59100342 485687.48000336 11.94400024
142994.48699951 485687.52300262 11.26200008
142993.70700073 485687.84100342 6.15700006
142993.48200226 485687.93399811 4.68200016
142994.12100220 485687.84700012 10.22700024
142993.93900299 485687.92199707 9.02999973
142993.85800171 485688.11000061 9.71100044
142993.46800232 485688.27100372 7.17399979
142993.28099823 485688.34999847 5.95800018
142993.15799713 485688.40000153 5.16099977
142993.68000031 485688.34500122 9.79300022
142993.38200378 485688.46800232 7.86999989
