142851.56000137 485919.39999962 16.69000053
142852.61999893 485919.48999977 14.01000023
142854.29000092 485919.22999954 8.60000038
142853.25000000 485920.62999916 15.64000034
142856.11999893 485919.67000008 4.78000021
142856.09000015 485920.45000076 7.13999987
142854.74000168 485921.23999977 13.27000046
142855.18000031 485921.72999954 13.43999958
142855.91999817 485922.04999924 12.30000019
142855.11999893 485923.23999977 18.03000069
142857.90000153 485922.43000031 7.82000017
142858.72000122 485923.45999908 8.46000004
142859.29999924 485923.87999916 7.98999977
142848.90000153 485913.11999989 9.00000000
142849.06000137 485913.82999992 10.72999954
142849.75000000 485914.14999962 9.85000038
142849.43000031 485915.17000008 13.80000019
142849.77000046 485915.72999954 14.57999992
142852.81999969 485915.27999973 4.82000017
142852.11000061 485916.53000069 10.52999973
142851.52000046 485917.69000053 15.64000034
142851.81000137 485918.27000046 16.59000015
142852.13000107 485918.82999992 17.36000061
142854.79999924 485917.94000053 7.26000023
142854.25999832 485918.27000046 9.77000046
142854.47000122 485918.90999985 11.03999996
142855.15000153 485919.26000023 10.17000008
142856.68000031 485919.11000061 5.46999979
142857.25000000 485919.54000092 5.11999989
142854.97000122 485921.61000061 17.54000092
142855.52000046 485922.03000069 17.21999931
142855.93999863 485922.53000069 17.44000053
142856.95999908 485922.69000053 15.02999973
142857.61000061 485923.06999969 14.27000046
142849.84999847 485912.94999981 10.27000046
142851.36999893 485913.50000000 7.80999994
142851.49000168 485914.22000027 9.64999962
142851.00999832 485915.32999992 14.30000019
142852.72999954 485914.98999977 8.52999973
142853.77000046 485915.88000011 8.31000042
142855.29999924 485915.68999958 3.50000000
142852.63999939 485918.13999939 18.10000038
142854.31999969 485917.86000061 12.59000015
142853.56000137 485918.32999992 16.11000061
142854.79000092 485919.09000015 14.89000034
142855.36999893 485919.48999977 14.43000031
142855.00999832 485920.45000076 18.23999977
142855.50000000 485920.89999962 18.15999985
142857.36000061 485920.57999992 11.97999954
142857.45999908 485922.00000000 15.72999954
142859.79000092 485922.19000053 9.67000008
142859.77999878 485922.93000031 11.75000000
142860.27000046 485923.39999962 11.68999958
142850.45000076 485912.43999958 11.68999958
142850.66999817 485913.09000015 13.02000046
142851.40999985 485913.38000011 11.88000011
142851.52000046 485914.09000015 13.68000031
142852.65000153 485914.13000011 10.67000008
142853.15999985 485914.57999992 10.64000034
142853.63999939 485915.05000019 10.68000031
142854.40000153 485915.35000038 9.46000004
142854.04000092 485916.35000038 13.36999989
142854.47999954 485916.84000015 13.60999966
142855.11999893 485917.20999908 12.89999962
142855.25000000 485917.88999939 14.48999977
142854.86000061 485918.87000084 18.43000031
142855.68999863 485919.12999916 16.85000038
142855.93999863 485919.71999931 17.84000015
142856.45999908 485920.15999985 17.63999939
142858.50999832 485919.73999977 10.64000034
142858.24000168 485920.62000084 13.89999962
142858.27999878 485921.34000015 15.82999992
142859.65999985 485922.04000092 13.86999989
142851.36999893 485911.47999954 10.47999954
142852.00000000 485911.85000038 9.84000015
142851.61000061 485912.90999985 14.07999992
142853.52999878 485912.40999985 7.34000015
142853.65000153 485913.11999989 9.09000015
142853.88000107 485913.77000046 10.36999989
142854.50000000 485914.14000034 9.73999977
142854.63000107 485915.61999989 13.71000004
142854.58000183 485916.40999985 16.13999939
142855.38000107 485916.68000031 14.67000008
142855.27999878 485917.48999977 17.31999969
142855.79999924 485917.94000053 17.13999939
142856.08000183 485918.51000023 17.98999977
142857.20999908 485918.60000038 15.05000019
142858.47000122 485918.62000084 11.55000019
142858.83000183 485919.15999985 12.03999996
142859.11999893 485919.72999954 12.86999989
142859.08000183 485920.48999977 15.10999966
142859.47999954 485921.00000000 15.42000008
142860.09000015 485921.39999962 14.77999973
142855.61999893 485914.44999981 12.11999989
142855.43000031 485915.34000015 15.22000027
142855.70999908 485915.92000008 16.12000084
142858.06999969 485916.01000023 9.77000046
142858.41999817 485916.56999969 10.36999989
142857.59000015 485917.79999924 16.22999954
142859.27000046 485917.57999992 10.86999989
142858.84000015 485918.56999969 14.85999966
142860.34999847 485919.93000031 14.39000034
142861.66999817 485919.95999908 10.72000027
142856.40000153 485914.14000034 13.39000034
142859.34000015 485916.15999985 10.92000008
142860.34999847 485916.32999992 8.55000019
142855.02000046 485928.05999947 11.01000023
142853.36999893 485926.28000069 13.55000019
142852.22000122 485925.37999916 14.19999981
142848.54999924 485923.62000084 12.73999977
142847.83000183 485923.69000053 11.14999962
142856.34999847 485927.42000008 12.80000019
142855.00999832 485927.34000015 10.64000034
142853.41999817 485925.29000092 14.10000038
142852.72000122 485925.40999985 12.44999981
142852.27999878 485924.36000061 14.89999962
142850.56999969 485925.75000000 7.44000006
142849.61000061 485924.07999992 10.75000000
142848.58000183 485922.75000000 12.86999989
142847.84000015 485922.90999985 10.93999958
142856.47000122 485926.77000046 12.55000019
142855.90000153 485926.27000046 13.07999992
142855.29000092 485925.96999931 12.89000034
142854.45000076 485926.71999931 9.09000015
142854.22999954 485924.63999939 15.09000015
142853.70999908 485923.92000008 16.37999916
142853.04000092 485923.87999916 15.27000046
142852.34000015 485923.97999954 13.68000031
142851.79999924 485923.40999985 14.43000031
142850.93999863 485924.10000038 10.71000004
142849.95999908 485925.22999954 5.38999987
142849.25000000 485922.62000084 12.05000019
142848.47999954 485922.88999939 9.76000023
142847.88000107 485922.55999947 9.60999966
142847.27999878 485922.20000076 9.55000019
142846.72999954 485921.68000031 10.07999992
142856.59999847 485927.10000038 9.11999989
142856.16999817 485925.87999916 12.13000011
142855.38999939 485926.37999916 9.17000008
142855.25000000 485923.90999985 16.54999924
142854.11000061 485923.01000023 17.25000000
142853.45999908 485922.88999939 16.44000053
142852.59000015 485923.71999931 12.26000023
142852.34000015 485921.95000076 17.22999954
142851.77999878 485921.47999954 17.64999962
142851.13000107 485921.36000061 16.79000092
142850.54000092 485921.01000023 16.76000023
142849.63999939 485921.84000015 12.47999954
142849.09000015 485921.30999947 13.06999969
142848.50999832 485920.89999962 13.23999977
142847.84999847 485920.80999947 12.19999981
142847.04999924 485921.14999962 9.61999989
142857.77999878 485926.07999992 12.10000038
142857.15999985 485925.79999924 11.85999966
142856.45000076 485925.94000053 10.17000008
142856.02000046 485924.79000092 12.93000031
142855.56999969 485923.72999954 15.40999985
142855.06999969 485922.97999954 16.80999947
142854.38000107 485923.04000092 15.35999966
142853.81000137 485922.56999969 15.75000000
142852.90999985 485923.50000000 11.23999977
142852.70000076 485921.54999924 16.84000015
142852.04999924 485921.43000031 15.97999954
142851.49000168 485920.95000076 16.43000031
142850.86999893 485920.69000053 16.04999924
142849.90000153 485921.73999977 11.01000023
142849.45999908 485920.82999992 12.93000031
142848.72999954 485920.95000076 11.17000008
142848.16999817 485920.45999908 11.60000038
142847.40000153 485920.69000053 9.40999985
142857.84999847 485925.35000038 11.93000031
142857.29999924 485924.76000023 12.77999973
142856.36000061 485926.02000046 7.21999979
142856.08000183 485924.12999916 12.53999996
142855.77999878 485922.43000031 17.23999977
142855.13000107 485922.32999992 16.35000038
142854.36000061 485922.72999954 13.72000027
142853.66999817 485922.76000023 12.36999989
142853.20999908 485921.87000084 14.25000000
142852.45999908 485922.12000084 12.07999992
142852.00000000 485921.22999954 13.93999958
142851.70999908 485919.69000053 18.10000038
142850.06000137 485920.71999931 11.85000038
142849.33000183 485920.85000038 10.06999969
142848.88000107 485919.96999931 11.85000038
142857.65000153 485924.96999931 10.40999985
142857.09999847 485924.36000061 11.31999969
142856.84999847 485922.37999916 16.96999931
142856.29999924 485921.84000015 17.61000061
142855.63999939 485921.75000000 16.70000076
142855.15000153 485920.95999908 18.23999977
142854.52999878 485920.72999954 17.80999947
142853.65000153 485921.56999969 13.61999989
142853.24000168 485920.47999954 16.19000053
142852.79000092 485919.55999947 18.19000053
142852.13000107 485919.48999977 17.15999985
142851.34000015 485919.89999962 14.39999962
142850.36999893 485920.93000031 9.42000008
142850.90000153 485918.98999977 16.31999969
142849.18000031 485920.19000053 9.39000034
142848.58000183 485919.85000038 9.27000046
142848.40999985 485918.01000023 14.55000019
142847.81000137 485917.70999908 14.27000046
142858.56999969 485926.02000046 6.28000021
142857.86000061 485922.88999939 14.64999962
142857.34000015 485922.18000031 15.89999962
142856.75999832 485921.75000000 16.17000008
142856.06000137 485921.86000061 14.56000042
142855.68000031 485920.55999947 17.86000061
142854.77999878 485921.50000000 13.35999966
142854.45999908 485920.02000046 17.28000069
142853.22000122 485922.27000046 8.14000034
142853.15000153 485919.84000015 15.42000008
142852.56999969 485919.39999962 15.67000008
142852.11999893 485918.53000069 17.48999977
142851.31999969 485918.94000053 14.72999954
142850.77000046 485918.45999908 15.13000011
142849.70000076 485919.79999924 9.02999973
142849.29999924 485918.75000000 11.44999981
142848.91999817 485917.65999985 14.02000046
142848.34999847 485917.22999954 14.22000027
142847.59999847 485917.40999985 12.18000031
142858.56999969 485925.27000046 6.23999977
142857.90000153 485925.20999908 5.23999977
142857.79000092 485922.50000000 13.35999966
142857.27999878 485921.73999977 14.77999973
142856.56000137 485921.95000076 12.81999969
142856.29000092 485920.14999962 17.84000015
142855.68999863 485919.82999992 17.71999931
142854.86999893 485920.43000031 14.39000034
142854.54999924 485918.95999908 18.29000092
142853.72999954 485919.54000092 15.01000023
142852.72000122 485918.17000008 17.29999924
142852.02999878 485918.19000053 15.93999958
142851.41999817 485917.87999916 15.72999954
142850.66999817 485918.12999916 13.53999996
142849.50000000 485919.77000046 6.32999992
142848.91999817 485916.95000076 13.73999977
142848.27000046 485916.79000092 12.97999954
142847.65000153 485916.54000092 12.51000023
142860.27000046 485923.65999985 11.82999992
142859.68999863 485923.13999939 12.40999985
142858.99000168 485923.27000046 10.77999973
142858.47999954 485922.51000023 12.18999958
142858.09999847 485921.12000084 15.78999996
142856.97000122 485923.19000053 7.44000006
142856.36000061 485922.81999969 7.48000002
142856.38000107 485919.79000092 16.77000046
142855.70000076 485919.79000092 15.52999973
142854.31999969 485922.69000053 4.13999987
142854.00999832 485921.12000084 8.35000038
142854.61000061 485918.70000076 16.82999992
142854.02999878 485918.29999924 16.98999977
142853.36999893 485918.21999931 16.00000000
142852.81000137 485917.76000023 16.35000038
142851.22000122 485921.07999992 3.26999998
142851.04999924 485919.14999962 8.78999996
142850.63999939 485918.10000038 11.22000027
142850.25000000 485917.03000069 13.72000027
142849.74000168 485916.42000008 14.55000019
142849.02999878 485916.46999931 13.02999973
142848.50999832 485915.85000038 13.89999962
142847.52999878 485916.76000023 9.22000027
142860.34000015 485923.21999931 10.85999966
142859.70000076 485923.04000092 10.28999996
142859.38999939 485921.26000023 15.21000004
142858.61999893 485921.72999954 12.39000034
142858.16999817 485920.70000076 14.75000000
142857.45999908 485920.82999992 13.09000015
142856.79000092 485920.80999947 11.93000031
142856.52999878 485919.01000023 16.94000053
142856.00999832 485918.37000084 17.93000031
142855.33000183 485918.37999916 16.65999985
142854.61999893 485918.48999977 15.00000000
142853.36000061 485920.75000000 5.78999996
142853.50000000 485917.53000069 15.84000015
142852.58000183 485918.43000031 11.36999989
142852.09000015 485917.68000031 12.71000004
142851.09000015 485918.77000046 7.53000021
142851.11000061 485916.22999954 15.26000023
142850.54000092 485915.80000019 15.44999981
142849.84999847 485915.80000019 14.11999989
142849.15999985 485915.76000023 12.90999985
142848.59999847 485915.31999969 13.11999989
142847.74000168 485915.81999969 9.94999981
142847.09000015 485915.64000034 9.18000031
142860.34999847 485922.47999954 10.82999992
142859.93000031 485921.22999954 13.90999985
142859.34999847 485920.79999924 14.22000027
142858.47000122 485921.75000000 9.75000000
142858.06999969 485920.47999954 12.90999985
142857.40000153 485920.44000053 11.80000019
142856.49000168 485921.42000008 7.19000006
142855.54000092 485922.52000046 2.09999990
142855.97999954 485917.81999969 17.22999954
142855.38999939 485917.47999954 17.15999985
142854.13999939 485919.71999931 8.02999973
142854.77999878 485917.21999931 16.80999947
142853.25999832 485920.43000031 4.25000000
142854.02999878 485917.47999954 14.63000011
142853.40999985 485917.23999977 14.19999981
142852.18999863 485919.17000008 6.07000017
142851.65000153 485918.61000061 6.73000002
142851.25000000 485917.50000000 9.34000015
142851.04999924 485915.76000023 14.18999958
142850.52000046 485915.22999954 14.77000046
142849.38999939 485916.65999985 8.27000046
142848.75999832 485916.40999985 7.80000019
142848.27000046 485915.68999958 9.00000000
142847.56999969 485915.67000008 7.69000006
142860.65000153 485921.25000000 12.51000023
142860.15000153 485920.42000008 14.17000008
142859.59999847 485919.85000038 14.92000008
142858.77000046 485920.54999924 11.32999992
142858.00999832 485920.89999962 8.89999962
142857.84999847 485918.63999939 15.48999977
142857.29999924 485918.07999992 16.19000053
142856.59999847 485918.17000008 14.64000034
142856.02000046 485917.77000046 14.77000046
142855.25999832 485918.07999992 12.43999958
142854.59999847 485917.95999908 11.56999969
142854.99000168 485916.45999908 16.82999992
142853.25000000 485920.48999977 1.38999999
142854.25000000 485916.67000008 14.85000038
142853.65000153 485916.36000061 14.63000011
142852.88000107 485916.64999962 12.31999969
142852.15000153 485916.77000046 10.56000042
142851.43999863 485916.79999924 9.13000011
142850.56000137 485917.42000008 5.57999992
142851.25999832 485915.01000023 14.18999958
142850.00999832 485916.88999939 6.07999992
142849.99000168 485914.61999989 12.88000011
142848.90999985 485915.85000038 7.09000015
142848.45999908 485915.01000023 8.71000004
142861.33000183 485920.85000038 12.40999985
142860.68000031 485920.73999977 11.60000038
142860.13999939 485920.09000015 12.61999989
142858.43999863 485918.62999916 14.02000046
142857.79999924 485918.45000076 13.43999958
142857.29000092 485917.75000000 14.63000011
142856.65999985 485917.54000092 14.10999966
142855.36000061 485920.01000023 4.23000002
142854.65000153 485920.04000092 2.82999992
142855.65000153 485916.11000061 16.59000015
142855.04000092 485915.82999992 16.29999924
142853.31000137 485919.79000092 1.09000003
142854.43000031 485915.56999969 15.93000031
142853.75000000 485915.56000042 14.68999958
142852.81000137 485916.45999908 10.19999981
142852.36000061 485915.57999992 12.00000000
142851.34000015 485916.70999908 6.63000011
142851.24000168 485914.63000011 12.69999981
142850.50999832 485914.73999977 10.96000004
142849.99000168 485914.11999989 11.81000042
142848.75000000 485913.59000015 10.98999977
142860.18000031 485920.12999916 9.96000004
142859.24000168 485918.20999908 14.11999989
142858.47999954 485918.57999992 11.64999962
142857.74000168 485918.84000015 9.52000046
142857.09999847 485918.62000084 9.01000023
142856.41999817 485918.55999947 7.96000004
142855.81999969 485918.19000053 7.98000002
142855.79999924 485915.56999969 15.85999966
142855.18000031 485915.32999992 15.42000008
142854.45999908 485915.47999954 13.61999989
142853.04000092 485918.12999916 2.96000004
142853.15999985 485917.70999908 4.44000006
142853.04000092 485915.60000038 10.56000042
142852.08000183 485916.53000069 5.94999981
142851.77999878 485915.11999989 9.60999966
142851.54999924 485913.52000046 13.98999977
142850.84000015 485913.55000019 12.52000046
142850.27999878 485913.10000038 12.77999973
142849.47000122 485913.44999981 10.14999962
142848.79999924 485913.30000019 9.27000046
142862.00999832 485920.59000015 9.28999996
142861.49000168 485919.82999992 10.69999981
142860.84999847 485919.63999939 10.13000011
142860.18000031 485919.61000061 9.02999973
142859.63999939 485918.97999954 9.96000004
142858.88999939 485919.27000046 7.75000000
142857.95999908 485920.31999969 2.89000010
142857.47999954 485919.37000084 4.88999987
142856.95999908 485918.68000031 6.03999996
142856.18999863 485918.95000076 3.80999994
142856.25999832 485915.94999981 12.97999954
142855.50999832 485916.20000076 10.84000015
142855.04999924 485915.31000042 12.64999962
142854.06999969 485916.37000084 7.63999987
142853.74000168 485915.02999973 11.05000019
142853.11000061 485914.81000042 10.47999954
142852.34000015 485915.05000019 8.30000019
142852.13999939 485913.34000015 13.05000019
142851.61000061 485912.77999973 13.71000004
142850.75999832 485913.26000023 10.61999989
142849.95999908 485913.56999969 8.13000011
142849.43999863 485912.97000027 8.89000034
142861.16999817 485920.75000000 4.84999990
142860.70000076 485919.73999977 7.09000015
142860.29999924 485918.45999908 10.26000023
142859.22000122 485920.21999931 3.00000000
142859.15000153 485917.53000069 11.01000023
142858.40999985 485917.76000023 8.97999954
142857.70000076 485917.86000061 7.38000011
142857.38000107 485916.32999992 11.43000031
142856.90999985 485915.46000004 13.17000008
142856.34999847 485914.98999977 13.56000042
142855.75000000 485914.65999985 13.40999985
142854.68999863 485916.04000092 7.28999996
142854.31999969 485914.82999992 10.23999977
142853.72999954 485914.42000008 10.34000015
142852.66999817 485915.72000027 4.42000008
142852.18000031 485912.55000019 12.97000027
142851.54999924 485912.34000015 12.36999989
142850.93999863 485912.05000019 12.06000042
142850.15000153 485912.31000042 9.71000004
142861.54999924 485920.54000092 3.42000008
142861.13000107 485919.27000046 6.53000021
142860.29000092 485919.95999908 2.97000003
142859.90999985 485918.55999947 6.53000021
142859.63000107 485916.81999969 11.27000046
142858.95000076 485916.79999924 10.10999966
142858.22999954 485916.95000076 8.34000015
142857.66999817 485916.37999916 9.02999973
142857.27999878 485915.18999958 11.89000034
142856.31000137 485916.30999947 6.71000004
142856.15000153 485914.27000046 12.55000019
142855.27999878 485914.93000031 8.96000004
142854.25000000 485916.12000084 3.44000006
142854.25999832 485913.57999992 11.09000015
142853.61000061 485913.40999985 10.35999966
142852.66999817 485914.22999954 6.07000017
142852.47000122 485912.52999973 10.77000046
142851.93999863 485911.93999958 11.52999973
142851.25999832 485911.86999989 10.42000008
142850.52000046 485911.97000027 8.65999985
142860.16999817 485918.40999985 4.76000023
142859.88000107 485916.69000053 9.43000031
142859.25000000 485916.44000053 9.06000042
142858.63999939 485916.11000061 8.94999981
142857.70999908 485917.05999947 4.38000011
142857.45000076 485915.36999989 8.97999954
142857.02000046 485914.31999969 11.35000038
142856.31999969 485914.36999989 9.89999962
142855.52000046 485914.76000023 7.21999979
142855.13999939 485913.60999966 9.93999958
142854.22000122 485914.39999962 5.82000017
142853.86999893 485913.13000011 8.97000027
142853.04999924 485913.56000042 6.09000015
142852.77000046 485912.11999989 9.88000011
142852.20999908 485911.64999962 10.17000008
142851.56999969 485911.42000008 9.64000034
142850.84999847 485911.47999954 8.02999973
142860.54999924 485917.45999908 5.38000011
142860.13000107 485916.30999947 8.07999992
142859.29999924 485916.89999962 4.80999994
142858.68999863 485916.55999947 4.71000004
142857.65999985 485915.07999992 7.28000021
142857.06000137 485914.75000000 7.15000010
142856.16999817 485915.47000027 3.30999994
142855.56999969 485915.05000019 3.45000005
142854.93000031 485914.84000015 2.83999991
142854.56999969 485913.59000015 5.92000008
142854.18999863 485912.43999958 8.64000034
142853.49000168 485912.44999981 7.26000023
142853.00000000 485911.72000027 8.48999977
142860.31999969 485916.55999947 5.05999994
142859.59999847 485916.68000031 3.36999989
142859.08000183 485915.96000004 4.61000013
142858.34999847 485916.07999992 2.86999989
142858.04000092 485914.55000019 6.90999985
142855.90999985 485914.64999962 2.61999989
142855.61000061 485913.18999958 6.44999981
142854.93000031 485913.10999966 5.36999989
142854.27999878 485912.92000008 4.71000004
142853.68999863 485912.48999977 4.84999990
142858.79000092 485913.98999977 7.09000015
142850.31000137 485926.22999954 7.01000023
142850.40999985 485926.31999969 5.67999983
142849.95999908 485925.98999977 5.32999992
142852.63999939 485927.38999939 8.40999985
142851.13000107 485926.30999947 6.51000023
142850.59999847 485925.90999985 7.28000021
142850.74000168 485926.03000069 5.53000021
142850.04000092 485925.52000046 5.25000000
142849.81999969 485925.36000061 5.01999998
142849.65000153 485925.23999977 4.17999983
142847.47000122 485923.57999992 11.13000011
142847.56000137 485923.64999962 10.00000000
142852.75999832 485927.12000084 8.39000034
142849.40000153 485924.68000031 5.94999981
142848.75000000 485924.14999962 11.38000011
142848.45000076 485923.92000008 12.32999992
142848.24000168 485923.78000069 11.88000011
142847.95999908 485923.60000038 9.36999989
142847.65999985 485923.36000061 10.27999973
142854.50000000 485928.00000000 2.91000009
142852.86999893 485926.76000023 8.02000046
142852.54999924 485926.55999947 3.33999991
142850.77000046 485925.19000053 10.68000031
142850.72000122 485925.20999908 5.25000000
142850.00999832 485924.69000053 5.21999979
142848.47000122 485923.48999977 13.05000019
142848.58000183 485923.57999992 11.67000008
142848.11999893 485923.23999977 11.52999973
142848.22000122 485923.32999992 10.15999985
142847.90000153 485923.09000015 11.26000023
142847.50999832 485922.80999947 10.10000038
142846.88999939 485922.37000084 8.89000034
142854.47999954 485927.79999924 2.72000003
142853.08000183 485926.65999985 13.48999977
142853.06999969 485926.70000076 8.10000038
142852.88999939 485926.57999992 7.40999985
142852.00999832 485925.88999939 12.26000023
142852.52000046 485926.36000061 3.11999989
142851.09000015 485925.28000069 6.13999987
142851.25000000 485925.42000008 4.09999990
142850.84000015 485925.09000015 6.34000015
142850.93000031 485925.17000008 5.15000010
142850.25000000 485924.61000061 10.85999966
142850.61999893 485924.94000053 6.07999992
142850.40999985 485924.78000069 5.76999998
142850.29999924 485924.71999931 4.07000017
142849.90999985 485924.42000008 6.07000017
142849.70999908 485924.28000069 5.51999998
142849.84000015 485924.38999939 3.86999989
142848.70999908 485923.46999931 12.60000038
142848.11999893 485923.04999924 11.02999973
142847.25999832 485922.44000053 9.85999966
142855.06000137 485927.56999969 11.27000046
142854.91999817 485927.47999954 10.17000008
142853.77999878 485926.62999916 12.44999981
142853.43999863 485926.36000061 13.75000000
142853.99000168 485926.82999992 7.21000004
142853.20000076 485926.18000031 13.82999992
142853.31999969 485926.29000092 12.36999989
142853.90999985 485926.79000092 5.42000008
142853.08000183 485926.11000061 12.40999985
142852.63000107 485925.76000023 14.90999985
142852.43000031 485925.62000084 14.53999996
142853.00999832 485926.11000061 7.65000010
142852.20000076 485925.45000076 14.55000019
142851.99000168 485925.29999924 14.25000000
142852.08000183 485925.37000084 13.21000004
142852.18999863 485925.46999931 11.84000015
142852.68000031 485925.92000008 2.86999989
142851.40999985 485924.90999985 9.84000015
142851.63999939 485925.11000061 7.01000023
142852.02999878 485925.45000076 2.06999993
142851.41999817 485924.95999908 6.67999983
142851.25999832 485924.84000015 5.78999996
142850.63999939 485924.35000038 10.56999969
142851.09999847 485924.73999977 4.80000019
142850.65000153 485924.37999916 7.51999998
142850.88999939 485924.59000015 4.38999987
142850.56999969 485924.35000038 5.40999985
142850.20000076 485924.05999947 7.11999989
142850.45000076 485924.28000069 3.86999989
142849.49000168 485923.50000000 10.34000015
142849.72000122 485923.70000076 7.30000019
142848.88999939 485923.04999924 12.05000019
142848.77999878 485922.98999977 10.34000015
142848.43999863 485922.72999954 11.65999985
142848.61999893 485922.87999916 9.28999996
142848.65000153 485922.94000053 5.65999985
142847.95999908 485922.39999962 8.60000038
142847.43999863 485922.01000023 9.38000011
142846.74000168 485921.50000000 9.25000000
142846.47999954 485921.30999947 9.51000023
142856.41999817 485928.20000076 10.84000015
142855.27999878 485927.37000084 10.35000038
142854.79000092 485927.03000069 7.84000015
142854.02999878 485926.44000053 11.22000027
142853.56000137 485926.06999969 13.94999981
142854.54999924 485926.90999985 2.29999995
142853.56000137 485926.10000038 11.18000031
142853.18999863 485925.80999947 12.78999996
142852.84000015 485925.54000092 14.10999966
142852.97999954 485925.65999985 12.47999954
142853.18000031 485925.82999992 10.02999973
142852.50999832 485925.29000092 15.31000042
142852.74000168 485925.48999977 12.50000000
142852.41999817 485925.23999977 13.52999973
142852.58000183 485925.37999916 11.63000011
142852.56999969 485925.43000031 5.94999981
142852.84000015 485925.65999985 2.69000006
142851.95000076 485924.92000008 10.71000004
142852.18999863 485925.12999916 7.71999979
142851.63999939 485924.69000053 11.60000038
142851.43000031 485924.54000092 11.35000038
142851.56000137 485924.64999962 9.65999985
142851.79000092 485924.85000038 6.78000021
142851.18000031 485924.35000038 11.48999977
142851.04000092 485924.26000023 10.32999992
142851.38999939 485924.56999969 5.82000017
142850.86999893 485924.18000031 6.38999987
142851.04999924 485924.32999992 4.11000013
142850.54999924 485923.93000031 7.48999977
142850.70999908 485924.06999969 5.38000011
142849.68999863 485923.28000069 9.47000027
142849.84999847 485923.42000008 7.34999990
142849.40999985 485923.06999969 10.06000042
142849.02000046 485922.76000023 12.15999985
142849.16999817 485922.89999962 10.10999966
142848.77000046 485922.57999992 12.36999989
142848.86000061 485922.65999985 11.03999996
142849.34000015 485923.06999969 4.65999985
142849.08000183 485922.87999916 4.90999985
142848.13000107 485922.14999962 8.23999977
142847.63000107 485921.78000069 8.63000011
142847.29000092 485921.52000046 10.03999996
142847.38999939 485921.61000061 8.63000011
142847.04999924 485921.34000015 10.14999962
142847.36000061 485921.62000084 5.67999983
142856.36000061 485927.67000008 10.68000031
142856.09000015 485927.46999931 11.01000023
142855.81000137 485927.26000023 11.51000023
142855.99000168 485927.40999985 9.47999954
142855.31000137 485926.89999962 9.18999958
142854.84999847 485926.57999992 8.97000027
142855.58000183 485927.19000053 0.58999997
142854.70000076 485926.46999931 7.98000002
142854.13999939 485926.02000046 11.77000046
142853.74000168 485925.70999908 13.72999954
142853.56000137 485925.59000015 13.05000019
142853.50999832 485925.57999992 10.82999992
142854.22000122 485926.18000031 2.36999989
142853.31000137 485925.43000031 10.42000008
142853.72999954 485925.78000069 5.48999977
142852.88999939 485925.10000038 12.69999981
142852.56999969 485924.85000038 13.73999977
142852.15999985 485924.54000092 15.82999992
142852.81000137 485925.11000061 5.05999994
142852.04000092 485924.48999977 11.59000015
142852.79999924 485925.12999916 2.23000002
142852.25000000 485924.70000076 6.03999996
142852.56999969 485924.96999931 2.06999993
142851.65999985 485924.21999931 10.42000008
142851.45000076 485924.06999969 10.15999985
142851.18999863 485923.87999916 10.40999985
142851.13999939 485923.89999962 4.96000004
142850.90000153 485923.71999931 4.96999979
142851.02000046 485923.81999969 3.50999999
142850.63000107 485923.52000046 5.40000010
142850.77999878 485923.64999962 3.50000000
142850.20000076 485923.18000031 7.96999979
142850.54999924 485923.47999954 3.28999996
142850.77999878 485923.68000031 0.34000000
142850.22999954 485923.23999977 4.38999987
142849.63999939 485922.75000000 9.18999958
142850.24000168 485923.28000069 1.09000003
142849.59999847 485922.75000000 6.55000019
142849.06000137 485922.31999969 10.59000015
142849.20999908 485922.45000076 8.52999973
142848.68999863 485922.03000069 12.38000011
142849.24000168 485922.50000000 5.00000000
142848.63999939 485922.02000046 9.90999985
142848.40000153 485921.84000015 9.96000004
142848.50000000 485921.93000031 8.56000042
142848.29999924 485921.78000069 8.07999992
142848.20999908 485921.73999977 6.03000021
142847.86999893 485921.47999954 7.42000008
142847.50999832 485921.20000076 9.18999958
142847.59000015 485921.29999924 4.73000002
142856.65000153 485927.69000053 11.14000034
142856.81999969 485927.84000015 9.22999954
142856.31000137 485927.43000031 12.31000042
142856.43000031 485927.53000069 10.96000004
142856.22000122 485927.38999939 10.60000038
142856.54999924 485927.65999985 6.94000006
142855.90999985 485927.13999939 11.43999958
142855.86999893 485927.12999916 9.30000019
142855.40999985 485926.79999924 9.10000038
142854.81999969 485926.37999916 7.71000004
142854.18999863 485925.87000084 12.27000046
142854.54999924 485926.18000031 8.06000042
142854.79999924 485926.38999939 5.17999983
142853.66999817 485925.47999954 12.94999981
142853.93000031 485925.70999908 9.77000046
142853.45000076 485925.32999992 12.68000031
142853.40000153 485925.30999947 10.47999954
142853.66999817 485925.54000092 7.23999977
142853.09999847 485925.07999992 11.31999969
142852.47000122 485924.56999969 16.07999992
142852.68999863 485924.76000023 13.36999989
142853.20000076 485925.20000076 7.19000006
142852.91999817 485924.97999954 7.78999996
142852.45999908 485924.62000084 10.44999981
142851.91999817 485924.19000053 14.19999981
142852.88999939 485925.02000046 2.24000001
142851.84000015 485924.13999939 12.36999989
142852.08000183 485924.35000038 9.39000034
142851.59999847 485923.96999931 12.47000027
142851.79000092 485924.12999916 10.05000019
142852.09000015 485924.38999939 6.32999992
142851.54000092 485923.95000076 10.21000004
142851.88000107 485924.23999977 5.88999987
142851.59999847 485924.03000069 6.46999979
142851.45000076 485923.93000031 5.38000011
142851.11000061 485923.70000076 3.50000000
142850.75000000 485923.42000008 5.15000010
142850.83000183 485923.48999977 4.07000017
142850.36999893 485923.12000084 7.07000017
142849.99000168 485922.81999969 8.96000004
142849.54999924 485922.47999954 11.63000011
142849.86000061 485922.75000000 7.44000006
142849.38999939 485922.37000084 10.63000011
142849.52999878 485922.48999977 8.69999981
142849.29999924 485922.32999992 8.59000015
142849.02000046 485922.11000061 9.30000019
142848.59999847 485921.78000069 11.72999954
142848.86999893 485922.02000046 8.03999996
142848.65000153 485921.86000061 7.84999990
142848.93999863 485922.11000061 3.79999995
142848.34999847 485921.62999916 8.77000046
142848.43000031 485921.70000076 7.57999992
142847.86000061 485921.22999954 12.35000038
142847.88000107 485921.29000092 8.68000031
142848.11000061 485921.48999977 5.44999981
142847.93999863 485921.37000084 4.46000004
142847.47999954 485921.00000000 7.73999977
142846.90999985 485920.56999969 9.17000008
142856.47999954 485927.04000092 13.42000008
142856.59000015 485927.14999962 9.57999992
142856.59999847 485927.18000031 6.92000008
142856.36999893 485927.01000023 6.78000021
142855.88000107 485926.62000084 9.67000008
142855.66999817 485926.46999931 9.34000015
142855.27999878 485926.15999985 11.11999989
142856.02000046 485926.79000092 2.59999990
142855.25999832 485926.17000008 8.65999985
142855.79000092 485926.62000084 2.57999992
142855.63000107 485926.52000046 1.59000003
142854.84999847 485925.87999916 7.90000010
142855.02999878 485926.04000092 5.71000004
142855.36000061 485926.31999969 1.87000000
142854.88000107 485925.93000031 4.75000000
142855.18999863 485926.20000076 1.03999996
142853.90999985 485925.13999939 13.35999966
142854.65999985 485925.78000069 4.50000000
142854.95000076 485926.02000046 1.09000003
142854.61000061 485925.76000023 2.27999997
142853.34999847 485924.71999931 14.44999981
142853.56999969 485924.90999985 11.77000046
142853.22000122 485924.63999939 13.23999977
142853.47000122 485924.85000038 10.14999962
142852.79999924 485924.30999947 15.40999985
142852.72000122 485924.27000046 13.52000046
142852.45999908 485924.07999992 13.82999992
142852.90999985 485924.45999908 8.35999966
142852.20999908 485923.88999939 14.06999969
142851.93999863 485923.69000053 14.56000042
142852.15000153 485923.87000084 11.92000008
142852.95000076 485924.54999924 1.95000005
142851.83000183 485923.64999962 10.00000000
142852.15000153 485923.92000008 6.05999994
142852.25999832 485924.04999924 1.59000003
142851.72000122 485923.62000084 5.42999983
142851.63000107 485923.56999969 3.50000000
142851.75000000 485923.67000008 2.00999999
142851.25999832 485923.28000069 5.26999998
142851.43999863 485923.43000031 2.93000007
142851.34999847 485923.38999939 0.89999998
142850.56999969 485922.75000000 7.98000002
142850.84000015 485922.97999954 4.51000023
142850.68999863 485922.87999916 3.31999993
142850.54999924 485922.79000092 2.07999992
142849.50999832 485921.92000008 12.78999996
142849.88000107 485922.23999977 7.82000017
142849.50999832 485921.95999908 9.57999992
142849.70999908 485922.12999916 6.88000011
142848.97999954 485921.53000069 13.53999996
142849.68000031 485922.12999916 4.07999992
142849.04999924 485921.62000084 9.40999985
142849.20000076 485921.75000000 7.42000008
142848.72000122 485921.36000061 10.76000023
142848.95000076 485921.56999969 7.53000021
142848.70000076 485921.37999916 7.76999998
142848.15000153 485920.94000053 12.09000015
142848.43000031 485921.18000031 8.25000000
142848.27999878 485921.09000015 6.94000006
142848.45999908 485921.23999977 4.48000002
142847.99000168 485920.86000061 7.82000017
142847.77000046 485920.70000076 7.57000017
142847.15999985 485920.23999977 9.47000027
142856.91999817 485926.97999954 12.36999989
142856.68999863 485926.80999947 12.27000046
142856.50999832 485926.67000008 11.71000004
142856.16999817 485926.40999985 12.85000038
142856.43999863 485926.65999985 7.21999979
142855.84000015 485926.19000053 11.27999973
142855.91999817 485926.25000000 10.40999985
142856.22999954 485926.52000046 6.86000013
142855.84999847 485926.21999931 8.47000027
142855.40999985 485925.87999916 10.80000019
142855.58000183 485926.02000046 8.88000011
142855.49000168 485925.96999931 7.15999985
142855.50999832 485926.02000046 4.13000011
142855.81000137 485926.27000046 0.67000002
142855.38999939 485925.94000053 2.82999992
142854.36999893 485925.11000061 11.92000008
142854.97000122 485925.61000061 4.88000011
142855.15000153 485925.76000023 2.78999996
142854.15999985 485924.95999908 11.60999966
142854.91999817 485925.60000038 2.69000006
142853.77999878 485924.64999962 13.40999985
142854.70999908 485925.45000076 2.29999995
142854.79000092 485925.52000046 1.33000004
142853.13999939 485924.17000008 15.39000034
142853.45999908 485924.44000053 11.60000038
142853.38000107 485924.39999962 9.72999954
142852.95000076 485924.05999947 12.09000015
142853.40999985 485924.45000076 6.51000023
142852.70999908 485923.87999916 12.18999958
142853.00999832 485924.13999939 8.46000004
142852.29000092 485923.55999947 14.36999989
142852.41999817 485923.67000008 12.84000015
142852.02999878 485923.37000084 14.72000027
142852.15999985 485923.46999931 13.18000031
142852.45999908 485923.72999954 9.40999985
142851.99000168 485923.36000061 12.28999996
142852.49000168 485923.80999947 3.14000010
142851.63000107 485923.11000061 10.92000008
142852.02000046 485923.44000053 6.01000023
142852.25000000 485923.63999939 3.06999993
142851.40000153 485922.94000053 10.93000031
142852.02000046 485923.46999931 3.01999998
142851.59000015 485923.12999916 5.36999989
142851.77000046 485923.29000092 3.07999992
142851.38999939 485922.98999977 4.98000002
142851.54000092 485923.12000084 2.94000006
142851.65000153 485923.20999908 1.55999994
142851.18000031 485922.84000015 4.59000015
142851.43999863 485923.05999947 1.12000000
142850.52000046 485922.29999924 10.10999966
142849.95999908 485921.87999916 11.25000000
142850.27999878 485922.14999962 7.03999996
142849.86999893 485921.82999992 9.30000019
142850.02000046 485921.95999908 7.34000015
142849.22000122 485921.32999992 11.73999977
142849.54999924 485921.62000084 7.19000006
142848.95999908 485921.13999939 12.06999969
142849.04999924 485921.21999931 10.82999992
142849.13999939 485921.29000092 9.72000027
142849.31000137 485921.44000053 7.36999989
142848.63999939 485920.89999962 13.26000023
142849.11000061 485921.29999924 6.76999998
142848.43999863 485920.75000000 12.89999962
142848.52000046 485920.81999969 11.69999981
142848.88999939 485921.13999939 6.63999987
142848.50000000 485920.84000015 8.65999985
142857.70999908 485927.10000038 10.14999962
142857.45000076 485926.89999962 10.42000008
142857.29000092 485926.79999924 9.52999973
142857.11000061 485926.67000008 8.97000027
142856.90999985 485926.51000023 8.55000019
142856.31999969 485926.04999924 12.48999977
142856.70999908 485926.37000084 8.14000034
142855.99000168 485925.79999924 13.51000023
142855.97999954 485925.80999947 11.06999969
142856.09999847 485925.94000053 6.92000008
142855.65999985 485925.59000015 9.28999996
142855.36999893 485925.37999916 9.86999989
142855.50999832 485925.48999977 8.31000042
142855.81999969 485925.75000000 4.69999981
142854.45000076 485924.64999962 15.11999989
142854.27999878 485924.53000069 14.39000034
142854.43000031 485924.65999985 12.56999969
142855.08000183 485925.20999908 4.96000004
142854.16999817 485924.46999931 12.85999966
142854.27999878 485924.55999947 11.64000034
142854.56000137 485924.79000092 8.34000015
142855.13999939 485925.29000092 1.41999996
142854.81999969 485925.04000092 2.43000007
142853.49000168 485923.95000076 15.39000034
142854.16999817 485924.52000046 7.34000015
142854.38000107 485924.72999954 1.87000000
142853.38999939 485923.90999985 11.02999973
142853.13000107 485923.71999931 11.32999992
142852.88000107 485923.54000092 11.43999958
142853.45999908 485924.02000046 4.38999987
142852.54999924 485923.28000069 12.63000011
142852.63999939 485923.36000061 11.52000046
142852.84000015 485923.53000069 9.10000038
142853.43000031 485924.03000069 1.78999996
142852.00000000 485922.85000038 16.54999924
142852.56000137 485923.31999969 9.60999966
142852.65000153 485923.42000008 5.57000017
142851.97000122 485922.87999916 11.03999996
142851.77999878 485922.73999977 10.56000042
142850.93999863 485922.06999969 15.35999966
142850.61000061 485921.82999992 16.51000023
142850.74000168 485921.93000031 14.90999985
142851.68999863 485922.73999977 2.56999993
142851.33000183 485922.46999931 4.13000011
142850.33000183 485921.64999962 14.10000038
142851.09999847 485922.29999924 4.03999996
142850.41999817 485921.78000069 6.71000004
142850.00000000 485921.45000076 9.11999989
142850.15999985 485921.57999992 7.01000023
142849.61999893 485921.14999962 11.11999989
142849.43999863 485921.02000046 10.39000034
142849.86999893 485921.38999939 4.53999996
142849.24000168 485920.87999916 9.89000034
142849.41999817 485921.06999969 4.19999981
142849.16999817 485920.88999939 4.19999981
142848.38000107 485920.23999977 12.01000023
142848.13999939 485920.05999947 12.11999989
142857.68999863 485926.81999969 9.85999966
142857.43999863 485926.62999916 10.06000042
142856.70000076 485926.10000038 7.73000002
142856.29999924 485925.79000092 9.57999992
142856.45999908 485925.93000031 7.71999979
142855.84000015 485925.43000031 12.09000015
142856.02000046 485925.57999992 9.98999977
142855.33000183 485925.02000046 15.25000000
142855.13000107 485924.87999916 14.90999985
142855.47999954 485925.18000031 10.81999969
142855.47999954 485925.20999908 8.05000019
142855.29999924 485925.07999992 7.40000010
142855.20000076 485925.02000046 5.78999996
142855.58000183 485925.34000015 1.38000000
142854.40000153 485924.37000084 12.38000011
142854.99000168 485924.87000084 5.44999981
142853.84999847 485923.93000031 16.18000031
142854.56000137 485924.54000092 7.69999981
142853.70999908 485923.84000015 15.10999966
142854.40000153 485924.42000008 6.82999992
142853.47999954 485923.67000008 15.07999992
142854.13999939 485924.22999954 7.11000013
142854.52999878 485924.55999947 2.40000010
142854.02000046 485924.15999985 5.67000008
142854.31000137 485924.40999985 2.10999990
142853.25000000 485923.55999947 9.27000046
142853.52000046 485923.79000092 5.94999981
142853.04000092 485923.40999985 8.92000008
142852.75999832 485923.20000076 9.47999954
142851.88000107 485922.46999931 17.57999992
142851.75999832 485922.39999962 16.10000038
142852.16999817 485922.75000000 10.96000004
142852.59999847 485923.12000084 5.55999994
142851.97000122 485922.61000061 10.52000046
142851.34000015 485922.10000038 15.52999973
142852.34000015 485922.95999908 2.70000005
142851.20000076 485922.01000023 14.38000011
142851.31000137 485922.10000038 12.97999954
142852.11999893 485922.79000092 2.53999996
142850.83000183 485921.71999931 16.14999962
142850.90999985 485921.78000069 15.15999985
142851.88999939 485922.62999916 2.34999990
142850.54999924 485921.51000023 16.81999969
142851.54000092 485922.35000038 3.90000010
142851.65999985 485922.45999908 2.28999996
142850.52999878 485921.52000046 13.97999954
142851.50999832 485922.37000084 1.04999995
142850.34000015 485921.38999939 13.36999989
142851.11999893 485922.05999947 3.06999993
142850.38000107 485921.45000076 9.68000031
142850.59999847 485921.63999939 6.73999977
142849.65000153 485920.87999916 13.22000027
142849.84000015 485921.04000092 10.71000004
142849.41999817 485920.70999908 13.25000000
142849.65000153 485920.90999985 10.11999989
142849.43999863 485920.76000023 9.77000046
142849.86000061 485921.12000084 3.97000003
142849.18000031 485920.56999969 10.07999992
142848.75000000 485920.26000023 9.52000046
142849.09999847 485920.56999969 4.51999998
142848.52000046 485920.09000015 9.35999966
142848.38999939 485920.01000023 7.96000004
142848.40000153 485920.05999947 4.30999994
142857.68000031 485926.28000069 12.17000008
142857.38999939 485926.04999924 12.85999966
142857.36999893 485926.07999992 7.84999990
142856.90000153 485925.70999908 10.43000031
142856.45000076 485925.40999985 7.44000006
142856.77000046 485925.67000008 3.89000010
142855.68000031 485924.78000069 13.53999996
142855.45999908 485924.62000084 13.42000008
142855.84999847 485924.95999908 8.86999989
142855.09000015 485924.34000015 15.00000000
142855.22000122 485924.45000076 13.42000008
142855.66999817 485924.82999992 8.26000023
142854.83000183 485924.14999962 15.30000019
142854.90999985 485924.20999908 14.39999962
142855.36000061 485924.60000038 9.06000042
142855.49000168 485924.70000076 7.65000010
142854.68000031 485924.04000092 14.32999992
142855.11999893 485924.40999985 9.18999958
142854.90999985 485924.26000023 8.81999969
142854.06000137 485923.56999969 16.07999992
142854.45999908 485923.90999985 11.35999966
142853.97000122 485923.52000046 14.46000004
142854.52000046 485923.98999977 7.84999990
142853.31000137 485923.02000046 16.77000046
142853.81999969 485923.45000076 10.52999973
142854.58000183 485924.09000015 1.39999998
142854.02000046 485923.64999962 5.26000023
142854.25000000 485923.84000015 2.45000005
142853.40000153 485923.14999962 9.92000008
142854.09999847 485923.73999977 1.37000000
142853.27000046 485923.05999947 8.65999985
142852.31000137 485922.28000069 17.56999969
142852.45999908 485922.43000031 12.80000019
142851.86000061 485921.95000076 17.47999954
142852.02000046 485922.07999992 15.44999981
142852.41999817 485922.42000008 10.39999962
142852.81999969 485922.77000046 5.32999992
142851.81000137 485921.93000031 15.17000008
142851.65000153 485921.82999992 14.13000011
142851.52000046 485921.73999977 12.89999962
142851.08000183 485921.38999939 15.55000019
142852.09999847 485922.27000046 2.24000001
142850.95000076 485921.30999947 14.22999954
142851.66999817 485921.93000031 4.76000023
142851.75999832 485922.00000000 3.60999990
142850.70999908 485921.13999939 14.32999992
142850.29999924 485920.80999947 16.62000084
142851.08000183 485921.47999954 6.28000021
142850.18000031 485920.77000046 11.93000031
142850.36000061 485920.93000031 9.52999973
142850.63000107 485921.14999962 5.96000004
142850.22999954 485920.84000015 8.13000011
142850.41999817 485921.00000000 5.67999983
142850.02999878 485920.70000076 7.61999989
142850.31000137 485920.94000053 3.85999990
142849.58000183 485920.35000038 10.51000023
142849.68999863 485920.43000031 9.11999989
142849.45999908 485920.27000046 9.05000019
142849.97000122 485920.70999908 1.96000004
142849.20999908 485920.09000015 9.11999989
142848.81000137 485919.82999992 4.75000000
142848.15999985 485919.29999924 10.72000027
142847.47999954 485918.84000015 6.90000010
142847.09000015 485918.55999947 5.59000015
142857.65000153 485925.95999908 10.32999992
142857.40999985 485925.78000069 10.43000031
142857.88999939 485926.20999908 2.41000009
142856.86000061 485925.37000084 11.26000023
142857.04999924 485925.57999992 3.72000003
142856.00999832 485924.72999954 12.93999958
142856.29999924 485924.96999931 9.61999989
142855.79999924 485924.57999992 12.67000008
142856.09999847 485924.82999992 9.15999985
142855.59000015 485924.43000031 12.35000038
142854.95000076 485923.92000008 16.98999977
142855.75000000 485924.59000015 7.75000000
142855.04000092 485924.02000046 13.25000000
142854.72999954 485923.78000069 14.19999981
142854.45000076 485923.56999969 14.72000027
142854.93999863 485923.97999954 8.85999966
142855.16999817 485924.18000031 6.17000008
142854.02000046 485923.22999954 17.07999992
142854.33000183 485923.50000000 13.34000015
142854.72000122 485923.81999969 8.72000027
142854.95999908 485924.03000069 5.82999992
142854.02999878 485923.27000046 14.09000015
142854.75000000 485923.87000084 5.51999998
142853.61999893 485922.95000076 16.20999908
142854.31000137 485923.53000069 7.94000006
142854.52999878 485923.71999931 5.23999977
142853.65999985 485923.00000000 12.97000027
142854.16999817 485923.44000053 6.71999979
142853.91999817 485923.26000023 6.86999989
142854.27999878 485923.55999947 2.50999999
142853.45000076 485922.88999939 9.71000004
142852.52999878 485922.12999916 18.18000031
142852.95000076 485922.47999954 13.05000019
142853.31999969 485922.79999924 8.47999954
142853.90000153 485923.29000092 1.26999998
142852.36999893 485922.02000046 17.34000015
142853.33000183 485922.82999992 5.42000008
142852.09999847 485921.80999947 17.88999939
142852.09999847 485921.85000038 14.90999985
142852.33000183 485922.04000092 12.00000000
142852.56000137 485922.27000046 6.03999996
142853.04000092 485922.68000031 -0.08000000
142851.47000122 485921.36000061 17.00000000
142851.70000076 485921.55999947 14.09000015
142851.38999939 485921.31999969 15.07999992
142852.15999985 485922.01000023 2.01999998
142850.79000092 485920.87000084 16.82999992
142851.81000137 485921.73999977 3.44000006
142851.38000107 485921.39999962 5.92000008
142850.95000076 485921.05999947 8.52000046
142850.50999832 485920.70999908 11.28999996
142850.72000122 485920.89999962 8.39999962
142850.25000000 485920.52000046 11.63000011
142850.47000122 485920.70999908 8.64999962
142850.84000015 485921.03000069 3.60999990
142850.22000122 485920.52000046 8.85999966
142850.31000137 485920.60000038 7.63999987
142850.65000153 485920.89999962 2.95000005
142849.95999908 485920.32999992 9.17000008
142849.63000107 485920.06999969 10.50000000
142849.88999939 485920.29999924 6.90000010
142850.08000183 485920.46999931 4.17999983
142849.75999832 485920.21999931 5.36000013
142849.97999954 485920.40999985 2.32999992
142849.43999863 485919.96999931 6.57000017
142849.34000015 485919.92000008 4.53000021
142848.63000107 485919.34000015 11.25000000
