142988.81500244 485692.13099670 6.94199991
142988.93699646 485692.39499664 7.00500011
142989.49299622 485693.51699829 6.52299976
142989.58300018 485693.65200043 5.99100018
142989.50000000 485693.31700134 4.44799995
142989.93000031 485694.82399750 10.25899982
142989.71800232 485693.97100067 6.31199980
142990.05699921 485695.08899689 10.22500038
142990.16799927 485695.32800293 10.28499985
142990.27400208 485695.55200195 10.27700043
142990.14499664 485695.03099823 7.85699987
142990.08100128 485694.77300262 6.66200018
142990.40699768 485695.83300018 10.28100014
142990.40000153 485695.55599976 7.72499990
142990.50700378 485695.77400208 7.65000010
142990.69400024 485696.30200195 8.94699955
142990.73699951 485696.23799896 7.45400000
142990.88300323 485696.57599640 7.75899982
142991.04799652 485697.04100037 8.86800003
142990.91300201 485696.49299622 6.31300020
142991.13700104 485696.95300293 6.20499992
142991.49800110 485697.94599915 8.44400024
142991.35900116 485697.15499878 3.59899998
142984.45700073 485683.43000031 18.86800003
142984.63700104 485683.71700287 17.93700027
142984.67500305 485683.64199829 16.44000053
142984.94999695 485684.52600098 19.41600037
142984.78900146 485683.90899658 16.69300079
142985.07299805 485684.78299713 19.38400078
142984.90100098 485684.12300110 16.46699905
142985.32800293 485685.54000092 21.49799919
142985.19400024 485685.01799774 19.18600082
142984.98799896 485684.22599792 15.68299961
142985.43499756 485685.76000214 21.44199944
142985.06199646 485684.31600189 15.04699993
142985.56199646 485686.05000305 21.66399956
142985.15799713 485684.48300171 14.71899986
142985.26699829 485684.67800140 14.37600040
142985.73200226 485686.24800110 20.09799957
142985.38099670 485684.88500214 14.05099964
142985.72699738 485686.04599762 18.23699951
142985.64499664 485685.72799683 16.82099915
142985.68800354 485685.69300079 15.59500027
142985.36100006 485684.41300201 9.90400028
142985.84799957 485686.08699799 16.13599968
142985.47799683 485684.63899994 9.69099998
142985.58399963 485684.82900238 9.38899994
142986.28099823 485687.35099792 19.55599976
142985.95300293 485686.07499695 13.86400032
142985.70800018 485685.10700226 9.54599953
142986.69799805 485688.54900360 22.65800095
142986.81600189 485688.80699921 22.73900032
142986.70999908 485688.16699982 18.69799995
142987.04199982 485689.28900146 22.78599930
142986.38899994 485686.72599792 11.29899979
142987.13600159 485689.42700195 22.19199944
142987.16300201 485689.31400299 20.53800011
142986.97799683 485688.58499908 17.26799965
142987.25000000 485689.43299866 19.92499924
142986.87999725 485687.97399902 13.36999989
142987.05200195 485688.45500183 14.48099995
142986.73899841 485686.98100281 6.61899996
142986.85900116 485687.21700287 6.44799995
142986.97200012 485687.43900299 6.28299999
142986.85600281 485686.98300171 4.22599983
142987.07399750 485687.63099670 6.05299997
142986.96499634 485687.19899750 4.10300016
142986.86900330 485686.81999969 2.38800001
142987.76699829 485690.15100098 16.30900002
142987.38999939 485688.66100311 9.57100010
142986.98200226 485687.04799652 2.28299999
142987.88099670 485690.38400269 16.23900032
142987.49199677 485688.84600067 9.27700043
142987.41999817 485688.35399628 5.99200010
142988.37999725 485691.96900177 21.38100052
142987.51899719 485688.55500031 5.90999985
142988.56800079 485692.49500275 22.64500046
142988.52700043 485692.09200287 19.59000015
142988.37100220 485691.47100067 16.77199936
142988.71099854 485692.61799622 20.92799950
142988.67700195 485692.48100281 20.30100060
142988.09300232 485690.16400146 9.77099991
142988.88400269 485693.11900330 22.21800041
142988.66100311 485692.22699738 18.16300011
142987.98000336 485689.30999756 3.78800011
142988.71900177 485692.01499939 14.93400002
142988.10399628 485689.57199860 3.80200005
142989.22499847 485693.80799866 21.94899940
142989.29299927 485693.85900116 21.05400085
142989.18299866 485693.42199707 19.05699921
142988.88999939 485692.24800110 13.69299984
142988.17199707 485689.38800049 0.63999999
142989.23300171 485692.29599762 7.09999990
142989.35199738 485692.55500031 7.21199989
142989.46299744 485692.79000092 7.21700001
142989.87699890 485693.52400208 5.84499979
142990.09600067 485694.18599701 7.78399992
142990.22799683 485694.46600342 7.81899977
142990.34100342 485694.71299744 7.87500000
142990.69200134 485695.69899750 10.28199959
142990.59700012 485695.31700134 8.50699997
142990.68800354 485695.42700195 7.71500015
142990.91000366 485696.09100342 9.60499954
142991.44300079 485696.65299988 4.14900017
142991.79000092 485697.83499908 8.52000046
142991.91500092 485698.12000275 8.72200012
142984.56999969 485683.03199768 17.40600014
142984.69200134 485683.31199646 17.64800072
142984.91300201 485683.71499634 17.02199936
142985.26399994 485684.67600250 19.17099953
142985.66799927 485685.78600311 21.67799950
142985.47699738 485685.04499817 18.39699936
142985.76799774 485685.98799896 21.57699966
142985.80100250 485685.92500305 20.30299950
142985.67099762 485685.42099762 18.06399918
142985.45099640 485684.56999969 14.29599953
142985.91000366 485686.12999725 20.03899956
142985.56199646 485684.77799988 14.04100037
142985.79199982 485685.44300079 15.77999973
142985.67600250 485684.99199677 13.77999973
142985.46900177 485684.18099976 10.17800045
142985.89499664 485685.64600372 15.64700031
142985.77100372 485685.16200256 13.49899960
142985.56700134 485684.36499786 9.95199966
142986.46099854 485687.43299866 21.42600060
142985.97699738 485685.54900360 13.03199959
142986.55200195 485687.56199646 20.79000092
142986.09300232 485685.77200317 12.80900002
142986.60299683 485687.55999756 19.74600029
142986.81700134 485688.19200134 21.49300003
142986.28399658 485686.11100006 12.19999981
142987.01000214 485688.71800232 22.63400078
142986.91300201 485688.33899689 20.93899918
142986.40799713 485686.36100006 12.09799957
142987.11199951 485688.88600159 22.17499924
142987.01699829 485688.51200104 20.50000000
142986.91200256 485688.10199738 18.66600037
142986.52300262 485686.57599640 11.83600044
142987.19000244 485688.98699951 21.55500031
142986.61199951 485686.71700287 11.38599968
142987.28399658 485689.14099884 21.13199997
142987.12599945 485688.52300262 18.36100006
142987.37999725 485689.28500366 20.56299973
142986.97599792 485687.70099640 13.45300007
142987.51699829 485689.60199738 20.84099960
142986.83599854 485686.72399902 6.85099983
142986.93199921 485686.91000366 6.70200014
142987.04399872 485687.12899780 6.52699995
142987.15399933 485687.34300232 6.36399984
142987.03099823 485686.85700226 4.17000008
142986.93299866 485686.47100067 2.43099999
142987.49600220 485688.47399902 10.33500004
142987.04499817 485686.69499969 2.30599999
142987.95999908 485690.10700226 16.69099998
142987.58200073 485688.61799622 9.96300030
142988.06600189 485690.31800079 16.55500031
142987.67500305 485688.77500153 9.57800007
142988.29399872 485690.99500275 18.46400070
142987.61000061 485688.29199982 6.22800016
142988.64399719 485692.18099976 22.77700043
142987.71099854 485688.48600006 6.04099989
142988.74199677 485692.36499786 22.56100082
142988.87100220 485692.63400269 22.52099991
142988.72100067 485692.03399658 19.80400085
142988.30699921 485690.17500305 10.22900009
142988.86100006 485692.17600250 18.29899979
142988.17299652 485689.24299622 3.92799997
142989.29199982 485693.45899963 21.91900063
142988.29499817 485689.49500275 3.86100006
142989.03900146 485692.22100067 15.11100006
142988.35800171 485689.29499817 0.66200000
142989.49099731 485693.60700226 19.28100014
142989.20600128 485692.46600342 14.06999969
142989.78299713 485694.30999756 20.12500000
142989.41899872 485692.85399628 13.46100044
142989.51999664 485693.03500366 13.14900017
142989.56300354 485692.51999664 7.24800014
142989.69000244 485692.79799652 7.37799978
142989.79900360 485693.03800201 7.47599983
142989.92400360 485693.32299805 7.67600012
142990.05200195 485693.61299896 7.85799980
142990.16500092 485693.81900024 7.54799986
142990.66699982 485695.16100311 10.29500008
142990.77899933 485695.17099762 8.10200024
142991.18499756 485696.12300110 9.01000023
142984.50199890 485682.55699921 16.78800011
142984.78399658 485683.23000336 17.55500031
142985.33000183 485684.51499939 18.86800003
142985.51999664 485685.04399872 20.10799980
142985.75499725 485685.73999786 22.05400085
142985.65299988 485685.34400177 20.30400085
142985.86100006 485685.92400360 21.66799927
142985.75700378 485685.33399963 18.05400085
142985.98200226 485685.99800110 19.89999962
142985.86699677 485685.55100250 17.91600037
142985.64199829 485684.68199921 14.06400013
142985.75000000 485684.88999939 13.87899971
142985.85299683 485685.06999969 13.50000000
142986.44799805 485687.16799927 21.72599983
142985.96299744 485685.28700256 13.35799980
142986.52799988 485687.26999664 21.07600021
142986.06300354 485685.46600342 13.03999996
142986.62899780 485687.40899658 20.34700012
142986.18299866 485685.67500305 12.61699963
142986.70600128 485687.50700378 19.70999908
142986.28600311 485685.87000275 12.40799999
142986.39099884 485686.07399750 12.23600006
142987.12200165 485688.72599792 23.04700089
142986.49800110 485686.29199982 12.16800022
142987.19599915 485688.80000305 22.23600006
142986.59400177 485686.44599915 11.70400047
142987.28099823 485688.93099976 21.74799919
142987.36799622 485689.07800293 21.40399933
142987.20200348 485688.42600250 18.47999954
142986.97799683 485687.55500031 14.57600021
142987.43699646 485689.15599823 20.74500084
142987.30500031 485688.63700104 18.41600037
142987.02200317 485687.53199768 13.46000004
142987.67800140 485689.86799622 22.72699928
142987.80200195 485690.14099884 22.84300041
142987.70400238 485689.75800323 21.12199974
142986.90299988 485686.61199951 6.97800016
142987.81999969 485690.01200104 21.21899986
142987.00299835 485686.80400085 6.78399992
142987.96499634 485690.39099884 21.91500092
142987.10299683 485686.99800110 6.63700008
142986.97699738 485686.50299835 4.41099977
142986.98500061 485686.31999969 2.45199990
142987.57499695 485688.40499878 10.61600018
142987.11599731 485686.59600067 2.45799994
142988.04199982 485690.03099823 16.87100029
142987.67400360 485688.58399963 10.33300018
142988.14900208 485690.25299835 16.81900024
142988.26899719 485690.50900269 16.85700035
142988.11000061 485689.66500092 11.90600014
142987.78299713 485688.37500000 6.07000017
142988.82599640 485692.28299713 22.64299965
142988.78199768 485691.90899658 19.93099976
142988.97499847 485692.43699646 21.09799957
142988.37899780 485690.07900238 10.38799953
142988.94599915 485692.09500122 18.38699913
142989.05899811 485692.34100342 18.44599915
142989.36199951 485693.33699799 21.92099953
142988.36399841 485689.37899780 3.89899993
142989.46499634 485693.50800323 21.47100067
142989.11499786 485692.11900330 15.14099979
142988.48999786 485689.63700104 3.82500005
142989.43599701 485693.15499878 18.62999916
142989.22799683 485692.32299805 14.82900047
142988.44799805 485689.22499847 0.69999999
142989.58300018 485693.51799774 19.15399933
142989.31099701 485692.43499756 14.20800018
142988.56099701 485689.44999695 0.57700002
142989.50099945 485692.75099945 13.37399960
142989.61299896 485692.97499847 13.26099968
142989.71099854 485693.16799927 13.11400032
142989.76200104 485692.68800354 7.40600014
142989.89399719 485692.98400116 7.58500004
142990.32099915 485694.49299622 13.48900032
142990.01000214 485693.24600220 7.74800014
142990.12899780 485693.50800323 7.83799982
142990.24199677 485693.70700073 7.46099997
142990.51100159 485694.58599854 10.47500038
142990.33999634 485693.89600372 7.28800011
142991.03199768 485695.76999664 11.34599972
142990.85900116 485695.07599640 8.12800026
142991.26499939 485696.01200104 8.89000034
142991.37899780 485696.25299835 8.88899994
142992.15899658 485697.33699799 3.40899992
142984.69200134 485682.46399689 16.86599922
142984.89499664 485682.82499695 16.19000053
142984.61799622 485681.56800079 9.66600037
142984.73200226 485681.78700256 9.45899963
142984.84500122 485682.00900269 9.29800034
142985.02100372 485682.48000336 10.27200031
142985.71399689 485684.95500183 20.13100052
142985.95099640 485685.65399933 22.05699921
142986.06199646 485685.85199738 21.69799995
142986.13700104 485685.93299866 20.95800018
142985.96499634 485685.26799774 18.01399994
142985.73799896 485684.39099884 14.12399960
142985.64399719 485683.81600189 10.47000027
142986.30899811 485686.18499756 19.87500000
142986.18199921 485685.69400024 17.69400024
142986.38200378 485686.26000214 19.10400009
142986.46199799 485686.37400055 18.57600021
142986.48000336 485686.26899719 17.17300034
142986.21800232 485685.25399780 12.65999985
142986.05300140 485684.61000061 9.79199982
142986.78399658 485687.24199677 20.40299988
142986.32800293 485685.46600342 12.49199963
142986.90000153 485687.45899963 20.12599945
142986.45400238 485685.72200012 12.38199997
142986.92900085 485687.37400055 18.70899963
142986.79699707 485686.86499786 16.43600082
142986.87699890 485686.98400116 15.96199989
142986.67900085 485686.20700073 12.49300003
142987.38099670 485688.73799896 22.69300079
142986.74600220 485686.25599670 11.59300041
142987.29299927 485688.19000244 19.16699982
142987.57700348 485689.07399750 21.94700050
142987.41500092 485688.44300079 19.11800003
142987.11399841 485687.26999664 13.86299992
142987.21399689 485687.46600342 13.73299980
142987.83899689 485689.69599915 22.62000084
142986.97200012 485686.29900360 7.37200022
142987.96499634 485689.97200012 22.71500015
142987.08399963 485686.51499939 7.17999983
142986.91999817 485685.87200165 4.29500008
142988.05899811 485690.13400269 22.36599922
142987.19999695 485686.76200104 7.20300007
142987.03199768 485686.10500336 4.24800014
142987.14700317 485686.35299683 4.30499983
142987.26200104 485686.58699799 4.22800016
142987.16300201 485686.20099640 2.48900008
142987.77600098 485688.37200165 11.03800011
142987.29000092 485686.46099854 2.42400002
142988.38600159 485690.56800079 19.86000061
142987.94200134 485688.81500244 11.94799995
142987.86900330 485688.52999878 10.65999985
142988.46700287 485690.70600128 19.53599930
142988.46600342 485690.46700287 17.26799965
142988.14399719 485689.19899750 11.53299999
142987.97100067 485688.27500153 6.08300018
142988.91600037 485691.78199768 20.79700089
142988.09200287 485688.52600098 6.05100012
142988.99700165 485691.89600372 20.22800064
142988.58499908 485690.05000305 10.75899982
142989.51899719 485693.10900116 21.34600067
142988.55999756 485689.30999756 4.05900002
142989.65000153 485693.41100311 21.59799957
142988.67600250 485689.54900360 4.00299978
142989.61199951 485693.02400208 18.60400009
142988.62599945 485689.10600281 0.73400003
142989.75599670 485693.37699890 19.08099937
142989.51699829 485692.42199707 14.72299957
142988.74299622 485689.34700012 0.68699998
142989.88600159 485693.68299866 19.38400078
142989.63800049 485692.69000244 14.84500027
142990.02500153 485694.02300262 19.84300041
142989.78399658 485692.83200073 13.21800041
142989.91300201 485693.11799622 13.35700035
142990.02200317 485693.35700226 13.45400047
142990.13200378 485693.59200287 13.46199989
142990.27100372 485693.89099884 13.51500034
142990.37500000 485694.09500122 13.37800026
142990.07199860 485692.88700104 7.82700014
142990.50199890 485694.38400269 13.56499958
142990.19400024 485693.15000153 7.88500023
142990.40000153 485693.51899719 7.24800014
142990.71399689 485694.53700256 10.68799973
142991.05500031 485695.22599792 10.41800022
142991.19400024 485695.55500031 10.75500011
142991.92500305 485696.88999939 8.74199963
142992.35199738 485697.25299835 3.50200009
142985.00000000 485681.68399811 10.21000004
142985.12400055 485681.94300079 10.17700005
142985.24400330 485682.18599701 10.07600021
142985.94799805 485684.71099854 20.18300056
142986.16799927 485685.38999939 22.25900078
142985.70800018 485683.61399841 14.41100025
142986.25499725 485685.51799774 21.73100090
142986.12500000 485685.01499939 19.50399971
142985.82099915 485683.84200287 14.31200027
142985.63300323 485682.89299774 8.97999954
142985.74199677 485683.10099792 8.75599957
142986.51300049 485685.90699768 20.22500038
142986.58100128 485685.97799683 19.50600052
142986.64800262 485686.02300262 18.56900024
142986.30799866 485684.70600128 12.71800041
142986.73600006 485686.16200256 18.11499977
142986.41999817 485684.93800354 12.67700005
142986.81800079 485686.27999878 17.56999969
142986.92099762 485686.46299744 17.24399948
142987.01399994 485686.60700226 16.73800087
142987.07599640 485686.64299774 15.79599953
142987.00800323 485686.37799835 14.61200047
142986.85900116 485685.79100037 11.98999977
142987.11799622 485686.62000275 14.71899986
142986.94999695 485685.96199799 11.78100014
142986.73400116 485685.11499786 7.99499989
142987.67099762 485688.55899811 22.23699951
142987.50900269 485687.92800140 19.41699982
142986.84500122 485685.32900238 7.79500008
142986.97499847 485685.59500122 7.72499990
142987.95400238 485689.22499847 22.89999962
142987.09999847 485685.87699890 7.90299988
142987.19499969 485686.06199646 7.75000000
142987.45200348 485686.63999939 8.09500027
142987.61799622 485687.05799866 8.73999977
142987.53500366 485686.73100281 7.26900005
142987.27600098 485685.71499634 2.70700002
142987.47599792 485686.28399658 4.13399982
142987.39099884 485685.94699860 2.61999989
142988.02799988 485688.22899628 11.72900009
142988.12899780 485688.40599823 11.36900043
142988.71499634 485690.49400330 19.62500000
142988.96299744 485691.27899933 22.15999985
142989.11000061 485691.65499878 22.80999947
142988.17900085 485687.98000336 6.20100021
142989.18900299 485691.74800110 22.07799911
142989.28600311 485691.90599823 21.63999939
142989.40499878 485692.15499878 21.61300087
142989.49800110 485692.30899811 21.18499947
142988.96700287 485690.19999695 11.61699963
142988.78800201 485689.06099701 4.20699978
142989.57700348 485691.97499847 16.36599922
142988.90299988 485689.30200195 4.19700003
142989.66200256 485692.10199738 15.84700012
142989.01599884 485689.53500366 4.15199995
142988.95400238 485689.06400299 0.86900002
142989.07900238 485689.32499695 0.83600003
142989.98799896 485692.74500275 15.41499996
142990.10299683 485692.97299957 15.28400040
142990.40100098 485693.92400360 18.39900017
142990.51100159 485694.14199829 18.26000023
142990.37300110 485693.37100220 13.62399960
142990.50299835 485693.67199707 13.86400032
142990.45600128 485693.01599884 8.45600033
142990.84799957 485694.36799622 13.56400013
142990.57399750 485693.27200317 8.52200031
142990.69599915 485693.52700043 8.50699997
142991.15399933 485694.69599915 10.45300007
142991.28199768 485694.98100281 10.61600018
142985.26200104 485682.38300323 17.67799950
142985.40200043 485682.73100281 18.17700005
142985.37200165 485682.41100311 15.67800045
142985.48500061 485682.63899994 15.58600044
142986.09899902 485684.39900208 20.11700058
142985.78299713 485683.18299866 14.75300026
142985.64499664 485682.64900208 12.40499973
142986.22299957 485684.67700195 20.28300095
142986.31900024 485684.86499786 20.11899948
142986.15799713 485684.24400330 17.37500000
142986.41000366 485685.01699829 19.72500038
142986.65699768 485685.73899841 21.68400002
142986.66000366 485685.55000305 19.78100014
142986.75900269 485685.73300171 19.53000069
142986.21900177 485683.44999695 8.43599987
142986.92600250 485685.96499634 18.35400009
142986.68599701 485685.03199768 14.21399975
142986.35199738 485683.73100281 8.43200016
142987.00299835 485686.05400085 17.63999939
142986.78399658 485685.20300293 13.86299992
142986.46600342 485683.96399689 8.35099983
142986.98899841 485685.80100250 15.44499969
142986.87999725 485685.37400055 13.54699993
142986.57299805 485684.16999817 8.18700027
142986.97000122 485685.53299713 13.24899960
142986.69300079 485684.44699860 8.41199970
142987.26200104 485686.45999908 16.26600075
142987.02400208 485685.52899933 12.11800003
142987.30100250 485686.38300323 14.71100044
142987.13999939 485685.75099945 11.89000034
142986.91999817 485684.88800049 8.03899956
142987.52799988 485686.83999634 14.49100018
142987.17600250 485685.45400238 8.29199982
142987.29299927 485685.68599701 8.14000034
142987.26799774 485685.36799622 5.55800009
142987.40799713 485685.70600128 5.98600006
142987.46199799 485685.50800323 2.95199990
142988.14299774 485687.95800018 12.79899979
142987.87000275 485686.88700104 7.98199987
142987.64800262 485686.01399994 4.06099987
142987.57599640 485685.73200226 2.79299998
142988.24400330 485688.14800262 12.56599998
142988.31999969 485688.22699738 11.76200008
142988.36199951 485687.74600220 6.24599981
142988.56400299 485688.32599640 7.73199987
142989.45200348 485691.62100220 21.51399994
142988.98899841 485689.78700256 13.21399975
142989.47000122 485691.47000122 19.67700005
142989.16999817 485690.06700134 12.22700024
142989.38999939 485690.73200226 14.18299961
142989.84899902 485692.31600189 20.14200020
142989.99299622 485692.64600372 20.41300011
142989.10299683 485689.11599731 4.36299992
142989.19899750 485689.31300354 4.29500008
142989.97200012 485692.16200256 16.12999916
142989.13700104 485688.83799744 0.99199998
142990.14900208 485692.62000275 16.94400024
142989.26899719 485689.11399841 0.95999998
142990.29599762 485692.96199799 17.26799965
142990.31500244 485692.84600067 15.74499989
142990.56400299 485693.61000061 18.06800079
142990.71700287 485693.97399902 18.45599937
142990.67500305 485693.39499664 13.70600033
142991.04499817 485694.17700195 13.73099995
142990.90200043 485693.60900116 11.12199974
142990.78700256 485693.15000153 9.00899982
142991.15599823 485694.40599823 13.67700005
142990.89199829 485693.35199738 8.82600021
142990.87000275 485693.26200104 8.41100025
142991.26300049 485694.63500214 13.69299984
142990.98000336 485693.49800110 8.45699978
142991.10600281 485693.75499725 8.38099957
142991.22499847 485694.01100159 8.40999985
142991.45800018 485694.72599792 10.56499958
142985.39900208 485682.24700165 17.48299980
142985.54499817 485682.62799835 18.19599915
142985.49500275 485682.43800354 17.36199951
142985.51200104 485682.30599976 15.72299957
142985.72200012 485682.88099670 17.01700020
142985.82700348 485683.08100128 16.79999924
142986.01200104 485683.59899902 18.05400085
142985.83300018 485682.91000366 15.01900005
142986.28800201 485684.46199799 20.79400063
142986.37500000 485684.58599854 20.21400070
142986.69300079 485685.42900085 21.88100052
142986.36599731 485684.16600037 16.29700089
142986.79499817 485685.59799957 21.42799950
142986.74700165 485685.41300201 20.61100006
142986.55899811 485684.47399902 15.31700039
142986.90699768 485685.62500000 19.38400078
142986.65499878 485684.65100098 15.06400013
142986.53199768 485684.17299652 12.95300007
142986.99800110 485685.77300262 18.97500038
142986.75199890 485684.82499695 14.76599979
142986.63500214 485684.36799622 12.74400043
142987.06700134 485685.82599640 18.06999969
142986.96099854 485685.17500305 13.90200043
142986.65499878 485683.98400116 8.60799980
142987.23400116 485686.02799988 16.58300018
142987.16699982 485685.76599884 15.42000008
142987.06800079 485685.38099670 13.70699978
142986.77200317 485684.22799683 8.57600021
142987.40299988 485686.49800110 17.71100044
142987.31900024 485686.17400360 16.26499939
142987.25099945 485685.90899658 15.08800030
142987.08799744 485685.27300262 12.25699997
142987.36199951 485686.11799622 14.84200001
142987.20400238 485685.50099945 12.09000015
142986.83300018 485684.04900360 5.61399984
142987.33100128 485685.76799774 12.09799957
142986.94999695 485684.28099823 5.46099997
142987.05599976 485684.49900055 5.41900015
142987.68199921 485686.76000214 14.50599957
142987.33000183 485685.37899780 8.33300018
142987.45500183 485685.63800049 8.30399990
142987.69000244 485686.31700134 10.08500004
142987.62200165 485686.05400085 8.90299988
142987.42600250 485685.28600311 5.46299982
142987.57900238 485685.66899872 6.05299997
142987.42500305 485685.06900024 3.36899996
142987.52600098 485685.26599884 3.22900009
142988.19200134 485687.66899872 12.92599964
142987.62999725 485685.46600342 3.03600001
142988.32199860 485687.94400024 12.93700027
142988.43299866 485688.18099976 12.95199966
142988.38600159 485687.99400330 12.10999966
142988.47699738 485688.15799713 11.82900047
142988.52100372 485687.66400146 6.11600018
142988.65599823 485687.98500061 6.46899986
142989.66600037 485691.51599884 20.04700089
142989.76499939 485691.47399902 17.64599991
142989.28099823 485689.10299683 4.50500011
142990.03199768 485691.85800171 15.90299988
142989.39199829 485689.32199860 4.36000013
142990.15399933 485692.14499664 16.18099976
142989.31600189 485688.81500244 1.02100003
142989.43599701 485689.07499695 1.09500003
142990.59700012 485693.23000336 17.63199997
142990.69999695 485693.44699860 17.62999916
142990.87000275 485693.88300323 18.38699913
142990.90799713 485693.81400299 16.93499947
142990.84200287 485693.32499695 13.55300045
142991.08599854 485693.61499786 11.35400009
142991.19300079 485693.82099915 11.15400028
142991.45099640 485694.63400269 13.78400040
142991.19100189 485693.59400177 8.99699974
142991.41699982 485694.25099945 10.72999954
142991.28700256 485693.72299957 8.29899979
142991.42299652 485694.02500153 8.43000031
142991.51999664 485694.21399689 8.29500008
142991.73799896 485694.66200256 8.16800022
142991.87599945 485694.99400330 8.54800034
142985.58999634 485682.02500153 17.71500015
142985.70200348 485682.26399994 17.74099922
142985.86100006 485682.67700195 18.49099922
142985.97100067 485682.89499664 18.35899925
142986.02500153 485682.87999725 17.09499931
142985.93199921 485682.52300262 15.52400017
142986.20200348 485683.37400055 18.27799988
142986.31099701 485683.61100006 18.32799911
142986.21199799 485683.22599792 16.62899971
142986.63899994 485684.64800262 21.69599915
142986.32800293 485683.45099640 16.41900063
142986.76999664 485684.92900085 21.74099922
142986.44100189 485683.66000366 16.13999939
142986.74800110 485684.63500214 19.34499931
142986.55899811 485683.90799713 16.13500023
142986.66799927 485684.13600159 16.10899925
142986.48799896 485683.44000244 13.03800011
142986.73500061 485684.18199921 15.17700005
142986.60399628 485683.67299652 12.92599964
142986.96600342 485684.84899902 16.92399979
142986.73000336 485683.93399811 12.87199974
142987.16400146 485685.41699982 18.40600014
142987.25499725 485685.58699799 18.19899940
142987.30599976 485685.57700348 17.01300049
142987.22200012 485685.25000000 15.56299973
142987.42600250 485685.81400299 16.85700035
142987.34300232 485685.49099731 15.42199993
142987.60900116 485686.31600189 18.01899910
142987.27600098 485685.01899719 12.25100040
142987.39600372 485685.27700043 12.28600025
142987.15000153 485684.10399628 5.94500017
142987.62999725 485685.75800323 12.17199993
142987.23799896 485684.22799683 5.34399986
142987.53500366 485685.17400360 8.44600010
142987.64199829 485685.39700317 8.42800045
142987.50199890 485684.63700104 3.91400003
142987.96600342 485686.22000122 9.76700020
142987.61599731 485684.84799957 3.62299991
142987.71700287 485685.05000305 3.50799990
142988.38500214 485687.46499634 13.25199986
142988.75800323 485688.69000244 17.52700043
142988.55899811 485687.91500092 14.04599953
142988.50000000 485687.67700195 12.97500038
142988.66100311 485688.09200287 13.68599987
142989.06800079 485689.47399902 18.78199959
142988.68900299 485687.98300171 12.07600021
142988.86699677 485687.80400085 6.69000006
142989.83999634 485691.21499634 19.85300064
142989.82599640 485691.15699768 19.59499931
142989.93900299 485691.16899872 17.40399933
142989.87500000 485690.69499969 14.12600040
142989.98600006 485690.91400146 13.99199963
142989.59799957 485689.14299774 4.70200014
142990.47399902 485692.20700073 16.51600075
142989.77700043 485689.44000244 3.91499996
142989.63500214 485688.87000275 1.32200003
142989.74600220 485689.08699799 1.16600001
142990.98799896 485693.57099915 19.23800087
142990.91999817 485693.07399750 15.80000019
142990.31900024 485690.42900085 2.45499992
142991.30500031 485694.13300323 18.20000076
142991.17400360 485693.39399719 13.70600033
142991.41400146 485694.15299988 16.15900040
142991.52799988 485694.37999725 16.02599907
142991.39900208 485693.64399719 11.50300026
142991.35399628 485693.46199799 10.66399956
142991.44799805 485693.63500214 10.42099953
142991.58000183 485693.94799805 10.75100040
142991.61599731 485693.85399628 9.09899998
142991.95400238 485694.98300171 13.15299988
142991.94999695 485694.76699829 11.11900043
142992.26100159 485695.58300018 12.69900036
142992.02300262 485694.62599945 8.26900005
142992.15000153 485694.88999939 8.22599983
142992.33699799 485695.20800018 7.49700022
142985.93599701 485682.12000275 18.87599945
142986.05200195 485682.34999847 18.72800064
142986.10900116 485682.38500214 17.89100075
142985.97100067 485681.85199738 15.55300045
142986.20500183 485682.54900360 17.51700020
142986.09300232 485682.11599731 15.61600018
142986.43000031 485683.18599701 19.12000084
142986.32099915 485682.77100372 17.29700089
142986.49299622 485683.23500061 18.27499962
142986.43499756 485683.00900269 17.27899933
142986.52300262 485683.16699982 17.01799965
142986.61900330 485683.33300018 16.65200043
142986.75000000 485683.61499786 16.68899918
142986.86900330 485683.86699677 16.70499992
142986.65899658 485683.05300140 13.11200047
142986.76300049 485683.25099945 12.92300034
142986.59200287 485682.58599854 9.98499966
142986.44400024 485682.01599884 7.46299982
142987.33899689 485685.28199768 20.82799911
142986.87500000 485683.48600006 12.88899994
142987.34999847 485685.10099792 18.86199951
142987.46099854 485685.31999969 18.69499969
142987.48999786 485685.25199890 17.42799950
142987.32900238 485684.62799835 14.66199970
142987.84899902 485686.43599701 21.57900047
142987.59700012 485685.45999908 17.24600029
142987.43599701 485684.83200073 14.46500015
142987.52899933 485684.97100067 13.90400028
142987.56500244 485684.90599823 12.53999996
142988.41100311 485687.56500244 21.02099991
142988.30899811 485687.16400146 19.23299980
142987.69999695 485684.78099823 8.60799980
142988.51399994 485687.74099731 20.62800026
142988.39399719 485687.27200317 18.53599930
142987.58399963 485684.10600281 4.40600014
142988.62500000 485687.97000122 20.57699966
142987.68800354 485684.30300140 4.19700003
142988.55300140 485687.46600342 17.14599991
142987.81099701 485684.55599976 4.13899994
142988.64800262 485687.62400055 16.74399948
142988.48500061 485686.98899841 13.90200043
142988.71800232 485687.68000031 15.84799957
142988.58799744 485687.17099762 13.56900024
142988.10099792 485685.25700378 4.99200010
142988.78800201 485687.74299622 15.01299953
142989.05200195 485688.56900024 17.63899994
142988.87400055 485687.87400055 14.51900005
142989.16699982 485688.79799652 17.52000046
142988.88200378 485687.67400360 12.46500015
142989.33599854 485689.25000000 18.42799950
142988.99400330 485687.90200043 12.36999989
142989.42500305 485689.38999939 17.98399925
142988.99099731 485687.22000122 5.81599998
142989.90399933 485690.42400360 18.20299911
142989.87200165 485690.29799652 17.63199997
142989.26899719 485687.91200256 6.85799980
142989.94999695 485690.38800049 16.91900063
142989.89900208 485690.18399811 15.99499989
142989.81600189 485689.86100006 14.53299999
142990.10800171 485690.77500153 17.43899918
142989.98699951 485690.29599762 15.27200031
142989.93900299 485690.11000061 14.42800045
142989.84999847 485689.75700378 12.82800007
142990.07499695 485690.42199707 14.68000031
142989.77700043 485688.78800201 4.93300009
142989.90699768 485689.06800079 4.99499989
142990.88600159 485692.54000092 18.62500000
142990.79299927 485692.16899872 16.93499947
142989.93800354 485688.76899719 1.46399999
142991.13500214 485693.08599854 18.81800079
142991.24500275 485693.32299805 18.87899971
142991.19100189 485692.90100098 15.88899994
142991.34400177 485693.28199768 16.46100044
142991.63999939 485694.02600098 17.59199905
142991.37200165 485692.94999695 12.66199970
142991.71900177 485694.14600372 17.14699936
142991.45899963 485693.10500336 12.37300014
142991.83399963 485694.39700317 17.23600006
142991.55400085 485693.27700043 12.09099960
142991.66200256 485693.45800018 11.64000034
142991.79599762 485693.76100159 11.85599995
142991.55000305 485692.77700043 7.32700014
142992.00000000 485693.93800354 9.36699963
142992.14600372 485694.28199768 9.73200035
142992.40799713 485694.66899872 8.13599968
142992.52400208 485694.91699982 8.16399956
142992.65599823 485695.23699951 8.56400013
142986.19200134 485682.12000275 18.66500092
142986.32199860 485681.98699951 14.69999981
142986.79900360 485683.42199707 18.84900093
142986.49299622 485682.24199677 13.65999985
142986.84100342 485683.37799835 17.55900002
142986.55699921 485682.27999878 12.72500038
142986.93000031 485683.52899933 17.19499969
142986.68699646 485682.58899689 13.05399990
142987.03900146 485683.73500061 16.97299957
142986.79599762 485682.79299927 12.82400036
142986.94000244 485683.13099670 13.14000034
142987.58799744 485685.23999786 20.36000061
142987.44899750 485684.47000122 15.71599960
142987.72100067 485685.33000183 18.48900032
142988.07299805 485686.48500061 22.51099968
142987.68299866 485684.97399902 15.80900002
142987.61799622 485684.72200012 14.69099998
142988.18699646 485686.71299744 22.39100075
142987.80699921 485685.24199677 15.85900021
142987.61100006 485684.47699738 12.46399975
142987.25099945 485683.07199860 6.22599983
142987.75700378 485684.80799866 12.68799973
142988.54199982 485687.46399689 22.38999939
142988.39900208 485686.90399933 19.89800072
142988.65399933 485687.69100189 22.30100060
142987.87000275 485684.62799835 8.65100002
142987.64499664 485683.74900055 4.73500013
142988.63899994 485687.41400146 19.92499924
142987.75599670 485683.96299744 4.53499985
142988.20500183 485685.51200104 10.35999966
142988.13700104 485685.24700165 9.17599964
142988.66100311 485686.86199951 14.09599972
142988.92400360 485687.67700195 16.62700081
142988.76100159 485687.03900146 13.77000046
142988.27300262 485685.12100220 5.18200016
142988.38600159 485685.34200287 5.01000023
142989.05000305 485687.76499939 14.89400005
142989.37300110 485688.80899811 18.42900085
142988.63800049 485685.91999817 5.45900011
142989.48400116 485689.02500153 18.24900055
142989.59700012 485689.24099731 18.03499985
142989.48799896 485688.81300354 16.11199951
142989.91300201 485690.28500366 21.68499947
142989.85199738 485690.04599762 20.61100006
142990.02300262 485690.24099731 19.01600075
142989.35299683 485687.59600067 7.07700014
142990.02799988 485689.62300110 12.92399979
142990.14600372 485689.86399841 12.84899998
142990.37500000 485690.56600189 14.97500038
142990.48799896 485690.82199860 15.14599991
142990.61299896 485691.10900116 15.35599995
142990.05300140 485688.88700104 5.26900005
142990.18399811 485689.15899658 5.22700024
142990.10700226 485688.63999939 1.75899994
142991.05599976 485692.21600342 17.03800011
142990.21399689 485688.87200165 1.81400001
142991.30799866 485693.01499939 19.61700058
142991.40200043 485693.16100311 19.11899948
142990.49700165 485689.55799866 2.68600011
142990.61499786 485689.79000092 2.52500010
142991.62400055 485693.39499664 16.82500076
142991.66600037 485692.89600372 11.12500000
142991.84600067 485693.41100311 12.44799995
142991.96099854 485693.62200165 12.13399982
142992.08699799 485693.90499878 12.32400036
142992.15299988 485693.97399902 11.60700035
142992.27999878 485694.25299835 11.74499989
142992.29199982 485694.05200195 9.52799988
142992.40799713 485694.27600098 9.33800030
142992.70700073 485694.79100037 8.22000027
142992.81500244 485695.00700378 8.10299969
142986.30400085 485682.05300140 18.68899918
142986.68699646 485682.92800140 19.35400009
142986.41500092 485681.88400269 14.77299976
142986.78199768 485683.09300232 18.98600006
142986.87000275 485683.20099640 18.23200035
142986.60399628 485682.17400360 13.71599960
142986.94400024 485683.27700043 17.47100067
142986.68199921 485682.26799774 13.03100014
142986.66799927 485682.21600342 12.80000019
142987.05599976 485683.52600098 17.57399940
142986.78199768 485682.46800232 12.91399956
142987.19799805 485683.84799957 17.79400063
142986.90100098 485682.69999695 12.72999954
142986.78600311 485681.81700134 6.52199984
142987.69300079 485685.14099884 20.24399948
142987.67500305 485684.84899902 17.74900055
142987.53700256 485684.31600189 15.38899994
142987.63899994 485684.48200226 14.91499996
142988.18800354 485686.41100311 22.43700027
142987.73100281 485684.64499664 14.60400009
142987.61299896 485684.18599701 12.57100010
142987.24600220 485682.75900269 6.24399996
142988.27200317 485686.55599976 22.11800003
142987.90200043 485685.12599945 15.76700020
142987.71800232 485684.41100311 12.60000038
142988.33499908 485686.57199860 20.98600006
142988.58399963 485687.31300354 23.07600021
142988.42299652 485686.69000244 20.30100060
142988.66799927 485687.44499969 22.62800026
142988.74600220 485687.33499908 19.96500015
142988.25900269 485685.20300293 9.24100018
142988.16699982 485684.64600372 5.69999981
142988.76599884 485686.78500366 14.18200016
142988.26300049 485684.81199646 5.35400009
142988.38600159 485685.06099701 5.23999977
142989.09500122 485687.61499786 15.49300003
142988.86799622 485686.71900177 11.47700024
142989.19200134 485687.77999878 15.11499977
142988.97000122 485686.90399933 11.18599987
142989.17800140 485687.50700378 12.77200031
142989.60199738 485688.94000244 17.98399925
142989.30699921 485687.77600098 12.75500011
142989.72200012 485689.19699860 18.02099991
142990.03199768 485690.21900177 21.61000061
142989.44200134 485687.48699951 7.16400003
142990.37100220 485690.93199921 21.58099937
142990.19599915 485690.24500275 18.48299980
142989.55699921 485687.72499847 7.10699987
142990.59700012 485691.41600037 21.63699913
142990.50900269 485690.84700012 17.94700050
142990.23000336 485689.74500275 12.95899963
142990.38099670 485690.11399841 13.43000031
142990.34700012 485689.97599792 12.80599976
142990.08699799 485688.75099945 6.22900009
142990.71099854 485691.00800323 15.36999989
142990.16999817 485688.87100220 5.67100000
142990.84899902 485691.31800079 15.53899956
142990.28099823 485689.06700134 5.31899977
142990.32499695 485688.81099701 1.90300000
142991.39700317 485692.87699890 19.45999908
142990.49099731 485689.28299713 3.08999991
142991.49800110 485693.03900146 18.96500015
142990.60800171 485689.50399780 2.84599996
142991.69200134 485693.36900330 18.17099953
142991.72100067 485693.29000092 16.82099915
142991.83999634 485693.54499817 16.85000038
142991.96900177 485693.36900330 12.52099991
142992.07800293 485693.56999969 12.22700024
142992.19999695 485693.82900238 12.23799992
142992.39399719 485693.95899963 9.50699997
142992.50900269 485694.18800354 9.37600040
142992.64800262 485694.52200317 9.77000046
142992.92400360 485694.92800140 8.07299995
142993.02999878 485695.14900208 8.05300045
142986.50800323 485681.59899902 15.04300022
142986.87400055 485682.81600189 19.38699913
142986.61199951 485681.81600189 15.00199986
142986.87799835 485682.19599915 13.23999977
142987.49199677 485684.16699982 19.82900047
142987.61499786 485684.42299652 19.79299927
142987.76300049 485684.77600098 20.18799973
142986.95200348 485681.64099884 6.34800005
142987.85399628 485684.93499756 19.86100006
142987.71199799 485684.19599915 15.56000042
142988.24400330 485686.01200104 22.32600021
142987.66799927 485683.78199768 12.45699978
142988.33200073 485686.15699768 21.94000053
142987.91699982 485684.55100250 14.82299995
142987.77999878 485684.02200317 12.47900009
142988.47100067 485686.48999786 22.32099915
142987.82900238 485683.80599976 9.40699959
142987.61799622 485682.98600006 5.76700020
142988.64199829 485686.73699951 21.21400070
142987.95300293 485684.05999756 9.31599998
142988.83699799 485687.27300262 22.42900085
142988.94200134 485687.47399902 22.22200012
142988.15399933 485684.40499878 8.55599976
142988.01499939 485683.86299896 6.14099979
142989.04799652 485687.66999817 21.95499992
142988.63899994 485686.08000183 14.86999989
142988.76399994 485686.34300232 14.86200047
142989.08599854 485687.36499786 18.20800018
142988.88099670 485686.56900024 14.65400028
142988.97599792 485686.75700378 14.51900005
142988.44100189 485684.66000366 5.14699984
142988.91799927 485686.31900024 11.48099995
142988.56500244 485684.93599701 5.29300022
142989.28199768 485687.52799988 15.74100018
142989.03399658 485686.54799652 11.35499954
142989.38999939 485687.74500275 15.63500023
142989.13800049 485686.75000000 11.17300034
142989.33300018 485687.32599640 12.77600002
142990.01499939 485689.79199982 22.72599983
142989.45700073 485687.59999847 12.88599968
142990.12799835 485690.01699829 22.59099960
142989.79900360 485688.72200012 16.77700043
142990.26100159 485690.13999939 21.05699921
142989.58100128 485687.46499634 9.01399994
142989.39700317 485686.73999786 5.75500011
142990.44999695 485690.68800354 22.51799965
142989.59700012 485687.33200073 7.39599991
142990.24199677 485689.62300110 16.42499924
142989.73100281 485687.60600281 7.32499981
142990.68900299 485691.15599823 22.14999962
142990.36100006 485689.85800171 16.29400063
142990.76599884 485691.26999664 21.68799973
142990.41600037 485689.88700104 15.44200039
142990.87100220 485691.48799896 21.66099930
142990.98600006 485691.72699738 21.62299919
142990.84500122 485690.93000031 16.78899956
142991.01799774 485691.19300079 15.79599953
142991.14099884 485691.46499634 15.90600014
142990.38700104 485688.47899628 2.33500004
142991.25800323 485691.71099854 15.89200020
142990.50000000 485688.70400238 2.21700001
142990.66799927 485689.15699768 3.17100000
142990.61100006 485688.93099976 2.14299989
142991.65100098 485692.83799744 18.80100060
142990.78500366 485689.40000153 3.13400006
142991.75299835 485693.00499725 18.32799911
142991.77100372 485692.83599854 16.31699944
142991.92400360 485693.24800110 17.17399979
142992.02100372 485693.40599823 16.72500038
142992.13200378 485693.63600159 16.67499924
142991.97200012 485692.77799988 11.60400009
142992.26599884 485693.53099823 12.91899967
142992.20099640 485692.77500153 6.90299988
142992.83999634 485694.67800140 12.29500008
142992.68699646 485694.06800079 9.48499966
142992.95300293 485694.91400146 12.27400017
142992.80200195 485694.31099701 9.48999977
142993.06400299 485694.70300293 7.94799995
142993.20700073 485695.03199768 8.20899963
142993.30799866 485695.22100067 7.96099997
142993.41999817 485695.46700287 8.05500031
142986.92600250 485681.66100311 13.60000038
142987.03099823 485681.84300232 13.20100021
142987.37000275 485682.94300079 16.94000053
142987.10800171 485681.72100067 10.46700001
142987.31700134 485682.11000061 9.97599983
142987.89499664 485683.93499756 15.81799984
142987.54399872 485682.57299805 9.80599976
142988.00399780 485684.15200043 15.67599964
142987.79000092 485683.31999969 12.00199986
142988.51300049 485685.89199829 22.17300034
142987.93299866 485683.64700317 12.23799992
142988.61900330 485686.07499695 21.78300095
142988.30799866 485684.87100220 16.45000076
142988.10099792 485684.06999969 12.90200043
142987.90399933 485683.30200195 9.49800014
142988.40699768 485685.05699921 16.20299911
142988.21800232 485684.32199860 12.94699955
142988.51999664 485685.28399658 16.10400009
142988.96600342 485686.80000305 21.70199966
142988.61699677 485685.44699860 15.68799973
142989.02999878 485686.84400177 20.82999992
142988.72299957 485685.65599823 15.54399967
142988.31800079 485684.07599640 8.51799965
142989.21800232 485687.38099670 22.18499947
142988.93900299 485686.11599731 15.58399963
142989.04000092 485686.30200195 15.34000015
142989.26599884 485686.94300079 16.94700050
142989.16000366 485686.53299713 15.12199974
142989.36799622 485687.14399719 16.80400085
142989.05599976 485685.92600250 11.36499977
142989.47000122 485687.35099792 16.71999931
142989.77300262 485688.32499695 19.96800041
142989.50399780 485687.27700043 15.27999973
142989.62200165 485687.52400208 15.27200031
142989.48500061 485686.98400116 12.85499954
142989.38999939 485686.60900116 11.17500019
142990.14800262 485689.36799622 22.42099953
142990.24800110 485689.54799652 22.11700058
142990.34300232 485689.71700287 21.80200005
142990.51499939 485690.17299652 22.70299911
142989.55500031 485686.39800262 5.72900009
142990.62500000 485690.40599823 22.70700073
142989.82499695 485687.25499725 8.53100014
142989.66799927 485686.63700104 5.75400019
142990.73300171 485690.61599731 22.53899956
142989.89600372 485687.32099915 7.70100021
142990.60099792 485689.88800049 18.18000031
142990.95800018 485691.06099701 22.24699974
142990.71299744 485690.09400177 17.88500023
142990.59400177 485689.62300110 15.76099968
142990.98500061 485690.96399689 20.76300049
142990.70600128 485689.86100006 15.78100014
142991.08499908 485691.17199707 20.72299957
142990.68099976 485689.57499695 13.50500011
142990.94999695 485690.16300201 13.70300007
142990.29699707 485687.57900238 1.99699998
142991.08200073 485690.45800018 13.87500000
142991.00900269 485690.17099762 12.57400036
142990.65799713 485688.78199768 6.27600002
142990.74900055 485688.92099762 5.77199984
142990.67700195 485688.43199921 2.48000002
142990.81099701 485688.71399689 2.48099995
142991.83000183 485692.55799866 18.93600082
142990.95600128 485689.08999634 3.15199995
142991.91500092 485692.69999695 18.56200027
142991.80599976 485692.26399994 16.57699966
142991.93399811 485692.55699921 16.77799988
142992.05699921 485692.80300140 16.66200066
142992.38099670 485693.65000153 18.22999954
142992.41100311 485693.55500031 16.69599915
142992.15200043 485692.52200317 11.96800041
142992.29000092 485692.62599945 10.16300011
142992.55500031 485693.48100281 13.04800034
142992.39299774 485692.83499908 10.08600044
142992.64800262 485693.63099670 12.59300041
142992.78600311 485693.93900299 12.75699997
142992.93399811 485694.32499695 13.46399975
142993.02200317 485694.45800018 12.96399975
142993.15799713 485694.75900269 13.09700012
142993.22699738 485694.81099701 12.19499969
142993.36199951 485695.12899780 12.51500034
142987.01699829 485681.30100250 13.68900013
142987.12100220 485681.50900269 13.57299995
142987.23600006 485681.75199890 13.57800007
142987.82299805 485683.35800171 17.14299965
142987.29699707 485681.32700348 8.19999981
142987.92800140 485683.56099701 16.93700027
142987.41100311 485681.55599976 8.10700035
142988.03800201 485683.75800323 16.60400009
142987.67600250 485682.35500336 10.41800022
142987.51999664 485681.75000000 7.75099993
142988.13099670 485683.91400146 16.22900009
142987.89800262 485683.01300049 12.25500011
142988.30500031 485684.40299988 17.39100075
142987.91500092 485682.88800049 10.70199966
142988.68199921 485685.67700195 22.06599998
142988.44699860 485684.56300354 16.03400040
142988.26999664 485683.87599945 12.99899960
142988.58300018 485684.86699677 16.21100044
142988.40000153 485684.15599823 13.06099987
142988.08599854 485682.93599701 7.65500021
142988.71499634 485685.17099762 16.45400047
142988.18499756 485683.10900116 7.30999994
142989.07800293 485686.39399719 20.91699982
142988.49299622 485684.12000275 10.82499981
142988.84100342 485685.26200104 14.74699974
142989.33000183 485686.95700073 21.21500015
142989.05000305 485685.87000275 16.38100052
142989.12100220 485685.95099640 15.69900036
142989.22200012 485686.13899994 15.46399975
142988.88999939 485684.84100342 9.68299961
142989.49400330 485686.96700287 17.94199944
142989.43099976 485686.72200012 16.84700012
142989.11599731 485685.49199677 11.36900043
142989.58699799 485687.11599731 17.50000000
142989.23500061 485685.74099731 11.36400032
142989.80000305 485687.74500275 19.23200035
142989.67700195 485687.26699829 17.09600067
142989.84999847 485687.52600098 16.06999969
142989.81900024 485687.40399933 15.52499962
142989.57399750 485686.43800354 11.19699955
142989.78700256 485687.06300354 12.87699986
142990.45300293 485689.45300293 22.44300079
142990.21800232 485688.53299713 18.31500053
142989.93199921 485687.41600037 13.30799961
142990.56199646 485689.69599915 22.56299973
142990.70300293 485690.04199982 23.03899956
142990.79799652 485690.18399811 22.46199989
142990.92900085 485690.47899628 22.64399910
142990.09300232 485687.18599701 7.82000017
142991.03700256 485690.69100189 22.48299980
142990.80200195 485689.76399994 18.30900002
142990.68199921 485689.29399872 16.19000053
