142988.37999725 485685.93000031 16.65999985
142986.62000275 485688.81999969 4.25000000
142986.16000366 485688.08999634 5.69000006
142986.54000092 485685.19000244 15.56000042
142985.75000000 485685.40000153 13.43000031
142985.29000092 485684.76000214 14.55000019
142984.33000183 485685.34999847 10.86999989
142989.09999847 485688.88999939 4.90999985
142989.55000305 485687.61000061 9.77999973
142989.25000000 485686.44999695 12.94999981
142988.08999634 485687.69999695 6.84000015
142988.09999847 485685.73000336 13.07999992
142987.62999725 485685.05999756 14.34000015
142987.00000000 485684.84999847 13.82999992
142986.00000000 485685.59999847 9.56999969
142985.56999969 485684.86000061 11.07999992
142984.48000336 485685.77999878 6.11000013
142983.98000336 485685.19999695 6.96999979
142990.22000122 485686.76000214 10.19999981
142988.87999725 485688.56999969 1.95000005
142988.98000336 485686.27999878 9.42000008
142988.19000244 485686.47000122 7.38000011
142987.87000275 485685.40000153 10.15999985
142987.22000122 485685.23999786 9.47000027
142986.45999908 485685.33999634 7.73000002
142986.12000275 485684.36000061 10.15999985
142985.41000366 485684.34999847 8.82999992
142984.38999939 485685.06999969 4.59999990
142989.87000275 485687.77999878 2.63000011
142989.61000061 485686.48000336 6.32000017
142988.95999908 485686.30999756 5.61999989
142987.77999878 485685.59999847 5.67999983
142987.01999664 485685.66999817 4.03999996
142986.95999908 485683.94000244 9.36999989
142985.70999908 485685.27999878 2.75999999
142985.29000092 485684.50000000 4.40999985
142984.65000153 485684.25000000 3.99000001
142989.81999969 485685.43000031 6.46000004
142988.69999695 485686.51999664 0.91000003
142988.31999969 485685.59999847 3.13000011
142987.87000275 485684.83999634 4.69000006
142987.31999969 485684.37999725 5.11999989
142986.83000183 485683.77999878 6.05000019
142985.37999725 485683.73000336 3.46000004
142989.94999695 485684.62000275 5.53999996
142989.22000122 485684.63999939 4.11999989
142988.00000000 485684.04000092 3.71000004
142987.48000336 485683.50000000 4.44000006
142984.13999939 485695.29000092 5.44000006
142983.56999969 485694.68000031 3.52999997
142982.37999725 485693.70999908 9.96000004
142985.16999817 485695.30000305 6.78000021
142984.50000000 485694.80999756 6.23000002
142983.93000031 485694.43000031 3.19000006
142983.55000305 485694.11000061 6.57000017
142983.65000153 485694.20999908 4.21999979
142983.44000244 485694.05999756 3.73000002
142982.50000000 485693.27999878 9.81999969
142982.52999878 485693.30999756 8.98999977
142982.08999634 485693.00000000 8.34000015
142982.31999969 485693.23000336 2.75000000
142981.97000122 485692.94000244 5.63999987
142985.56999969 485695.31999969 6.05999994
142985.11000061 485694.97000122 6.03999996
142984.68000031 485694.66000366 5.32000017
142984.22000122 485694.31999969 5.09999990
142984.06999969 485694.23999786 3.23000002
142983.69999695 485693.91999817 6.38999987
142983.80999756 485694.02999878 3.85999990
142983.48999786 485693.76999664 6.05000019
142982.63999939 485693.08999634 9.77999973
142982.68000031 485693.12999725 8.64999962
142982.33999634 485692.83999634 11.50000000
142982.56999969 485693.08999634 5.78999996
142982.23000336 485692.80999756 8.31000042
142982.05999756 485692.69000244 6.92999983
142981.75000000 485692.44000244 9.00000000
142981.09999847 485691.97000122 7.84999990
142985.87999725 485695.08000183 3.96000004
142984.90000153 485694.33999634 5.09000015
142984.66999817 485694.16999817 4.90000010
142984.12999725 485693.73999786 6.80000019
142984.30999756 485693.93000031 2.69000006
142983.51000214 485693.16999817 15.88000011
142983.58000183 485693.23999786 14.18000031
142983.26000214 485692.98000336 16.25000000
142983.44000244 485693.23000336 6.65999985
142983.08000183 485692.93000031 9.73999977
142982.65000153 485692.54000092 14.72999954
142982.91000366 485692.81999969 8.35000038
142982.88999939 485692.87000275 3.09999990
142982.30999756 485692.31999969 11.89999962
142982.06999969 485692.15000153 12.10999966
142982.27999878 485692.37000275 6.69000006
142982.05000305 485692.19999695 6.69999981
142981.75000000 485691.94999695 8.60000038
142981.30000305 485691.62999725 8.11999989
142981.33999634 485691.66000366 7.17000008
142985.94000244 485694.87000275 4.11999989
142985.44999695 485694.50000000 4.65000010
142984.95999908 485694.05999756 10.36999989
142985.22000122 485694.31999969 4.61000013
142984.97000122 485694.13999939 4.84000015
142984.75000000 485693.98000336 4.65000010
142984.83999634 485694.06999969 2.59999990
142983.83999634 485693.16999817 14.89999962
142983.58999634 485692.97000122 15.56000042
142983.48999786 485692.94000244 12.57999992
142983.23000336 485692.73000336 13.31999969
142982.94999695 485692.51000214 14.61999989
142983.23000336 485692.80999756 7.76999998
142982.72000122 485692.33999634 14.52000046
142982.95999908 485692.58999634 8.68000031
142982.59999847 485692.29000092 11.85000038
142982.63999939 485692.33000183 10.85000038
142982.70999908 485692.40000153 9.22000027
142982.62999725 485692.38999939 5.44000006
142982.01999664 485691.81999969 15.07999992
142982.34999847 485692.18000031 6.42999983
142982.05000305 485691.93000031 8.19999981
142981.80000305 485691.73000336 8.80000019
142981.59999847 485691.59999847 7.90000010
142981.37000275 485691.41999817 8.02000046
142985.97000122 485694.36000061 6.96999979
142985.51000214 485693.95999908 11.96000004
142985.31999969 485693.83000183 11.02999973
142984.91999817 485693.54000092 9.93999958
142984.91999817 485693.61000061 4.55999994
142984.06999969 485692.87000275 13.48999977
142984.47000122 485693.27999878 4.19999981
142984.54000092 485693.34999847 2.57999992
142983.90000153 485692.76000214 12.15999985
142984.12000275 485692.98000336 7.03999996
142983.50000000 485692.41000366 16.18000031
142983.55000305 485692.45999908 15.06000042
142983.33000183 485692.30000305 14.85000038
142983.66999817 485692.65000153 6.71999979
142983.87000275 485692.86000061 1.96000004
142983.05000305 485692.08000183 16.10000038
142983.15000153 485692.18000031 13.77000046
142982.91000366 485691.98999786 14.15999985
142983.16000366 485692.26999664 7.75000000
142982.59999847 485691.73999786 16.13999939
142982.83000183 485691.98999786 10.26000023
142982.40000153 485691.66999817 9.64000034
142982.43000031 485691.70999908 8.73999977
142982.11000061 485691.44000244 11.15999985
142982.05000305 485691.44999695 6.76999998
142981.69999695 485691.23000336 3.54999995
142985.69000244 485693.69999695 12.10999966
142986.06999969 485694.08999634 3.88000011
142985.33000183 485693.47000122 9.75000000
142985.48000336 485693.68000031 1.48000002
142985.11000061 485693.37000275 4.46000004
142984.98000336 485693.30000305 2.13000011
142984.56999969 485692.94999695 6.09999990
142984.73999786 485693.12000275 2.25999999
142984.01000214 485692.43000031 13.89000034
142983.81999969 485692.30999756 12.97999954
142984.00000000 485692.48999786 8.73999977
142984.08000183 485692.58000183 6.73999977
142983.19999695 485691.80000305 16.96999931
142983.23000336 485691.88999939 10.68999958
142983.37000275 485692.04000092 7.15000010
142982.79000092 485691.51000214 15.85000038
142982.98999786 485691.70999908 10.93000031
142982.13999939 485691.04000092 15.00000000
142982.29000092 485691.19000244 11.19999981
142982.06999969 485691.02999878 11.01000023
142982.22000122 485691.19000244 7.03000021
142981.73000336 485690.81999969 7.69000006
142986.62999725 485693.97000122 14.31999969
142986.44999695 485693.84999847 13.22000027
142986.51999664 485693.98000336 6.86999989
142986.05999756 485693.58000183 11.68999958
142985.80000305 485693.37000275 12.53999996
142985.95999908 485693.54000092 9.00000000
142986.20999908 485693.79000092 3.70000005
142985.70999908 485693.41000366 4.48999977
142984.98999786 485692.73999786 15.14999962
142985.04000092 485692.86000061 9.00000000
142985.25000000 485693.06999969 4.28999996
142984.48000336 485692.34999847 16.39999962
142984.87999725 485692.76000214 7.30999994
142984.97000122 485692.84999847 5.17999983
142984.33000183 485692.26000214 14.73999977
142984.54000092 485692.47000122 10.00000000
142984.87999725 485692.83000183 1.91999996
142984.48000336 485692.47000122 5.98000002
142983.97000122 485692.01999664 12.38000011
142983.72000122 485691.81999969 13.05000019
142983.81999969 485691.93000031 10.53999996
142983.41000366 485691.56999969 14.96000004
142983.73999786 485691.91999817 6.90999985
142983.37000275 485691.59999847 10.35000038
142982.98999786 485691.26999664 14.27000046
142983.16000366 485691.44999695 9.81999969
142982.87000275 485691.22000122 11.39999962
142982.93000031 485691.27999878 9.97000027
142983.15000153 485691.51999664 4.15000010
142982.86000061 485691.26999664 5.88999987
142982.25000000 485690.70999908 15.52000046
142982.01999664 485690.61000061 9.56000042
142982.12000275 485690.70999908 7.00000000
142982.29000092 485690.90000153 2.31999993
142981.87000275 485690.51999664 7.44999981
142986.59999847 485693.76000214 13.86999989
142986.41000366 485693.62999725 12.97000027
142986.12999725 485693.40000153 14.18999958
142985.87000275 485693.20999908 14.75000000
142986.00000000 485693.33000183 12.00000000
142986.40000153 485693.73999786 3.49000001
142985.70999908 485693.09999847 13.39000034
142985.91000366 485693.30999756 8.89999962
142985.66000366 485693.12000275 9.35000038
142984.94999695 485692.51000214 15.14000034
142985.22000122 485692.80000305 8.93000031
142985.41000366 485692.98000336 4.78000021
142984.66999817 485692.30000305 16.17000008
142985.16999817 485692.80999756 4.92000008
142984.52999878 485692.20999908 14.31999969
142984.30000305 485692.04000092 14.34000015
142984.62000275 485692.37000275 6.90999985
142984.80000305 485692.55999756 2.71000004
142984.83000183 485692.59999847 1.79999995
142984.08999634 485691.88999939 13.89999962
142984.40000153 485692.20999908 6.65999985
142983.91999817 485691.77999878 12.56999969
142984.00000000 485691.87000275 10.53999996
142984.31999969 485692.20999908 2.79999995
142983.80000305 485691.73000336 9.97999954
142983.47000122 485691.44999695 12.31999969
142983.58000183 485691.56999969 9.56000042
142983.18000031 485691.22000122 13.85000038
142983.33999634 485691.38999939 9.93000031
142983.41999817 485691.48000336 7.76000023
142983.19999695 485691.30999756 7.61000013
142983.30000305 485691.41999817 5.15000010
142982.76999664 485690.93000031 12.81000042
142983.01000214 485691.18000031 6.69000006
142983.05000305 485691.23000336 5.48999977
142982.63999939 485690.86000061 10.25000000
142982.41000366 485690.69000244 10.25000000
142982.41000366 485690.76999664 4.03999996
142982.06999969 485690.48999786 6.88999987
142982.16000366 485690.58000183 4.42999983
142986.72000122 485693.29000092 14.82999992
142986.79000092 485693.36000061 13.18999958
142986.83000183 485693.45999908 7.50000000
142986.27999878 485692.97000122 14.32999992
142986.83000183 485693.51999664 2.69000006
142986.13999939 485692.87999725 12.56000042
142985.51999664 485692.38999939 16.00000000
142985.83999634 485692.70999908 8.97000027
142986.26999664 485693.15000153 -0.56999999
142985.30999756 485692.23000336 15.77999973
142984.83000183 485691.87000275 16.27000046
142985.37000275 485692.41999817 4.03000021
142985.11000061 485692.22000122 4.53999996
142984.77999878 485691.95999908 6.76999998
142984.87000275 485692.04000092 4.78999996
142985.01000214 485692.19000244 1.54999995
142984.20999908 485691.43000031 14.76000023
142984.30000305 485691.51999664 12.72999954
142983.75000000 485691.08000183 15.02999973
142983.98000336 485691.33000183 9.38000011
142983.87000275 485691.27999878 6.50000000
142983.94000244 485691.36000061 4.63000011
142983.73000336 485691.19999695 4.19000006
142983.11000061 485690.62999725 13.80000019
142983.16000366 485690.68000031 12.60000038
142983.50000000 485691.04000092 4.00000000
142982.88999939 485690.47000122 13.73999977
142983.26999664 485690.87000275 4.01000023
142982.93000031 485690.58000183 6.69999981
142983.02999878 485690.69000244 4.13000011
142983.06999969 485690.73000336 3.05999994
142982.72000122 485690.44000244 6.07000017
142982.81999969 485690.54000092 3.46000004
142982.34999847 485690.11000061 9.94999981
142982.44000244 485690.29000092 1.14999998
142986.38999939 485692.70999908 14.81999969
142986.73999786 485693.12999725 2.32999992
142985.98000336 485692.48000336 8.85999966
142985.44999695 485692.01000214 15.52999973
142986.16999817 485692.73999786 -0.52999997
142985.23000336 485691.84999847 15.32999992
142984.98000336 485691.66000366 15.82999992
142984.69999695 485691.43000031 17.15999985
142984.58000183 485691.37999725 14.56000042
142985.01000214 485691.81999969 4.48999977
142984.37000275 485691.23000336 14.11999989
142984.48000336 485691.33999634 11.55000019
142984.13999939 485691.05000305 14.26000023
142984.19999695 485691.11000061 12.86999989
142984.05000305 485691.02999878 10.86999989
142984.16999817 485691.15000153 8.06000042
142983.73999786 485690.76999664 13.01000023
142983.91000366 485690.94999695 8.68000031
142984.09999847 485691.13999939 4.17000008
142984.18000031 485691.23000336 2.20000005
142983.43000031 485690.51000214 15.06999969
142983.54000092 485690.62999725 12.28999996
142983.66000366 485690.76000214 9.28999996
142983.30000305 485690.45999908 12.38000011
142983.41999817 485690.56999969 9.56999969
142983.77999878 485690.94999695 0.41000000
142983.06999969 485690.27999878 12.64999962
142983.44999695 485690.68000031 2.74000001
142982.97000122 485690.25000000 9.06000042
142982.73999786 485690.08000183 9.13000011
142982.84999847 485690.19000244 6.28000021
142982.61000061 485690.01999664 6.44000006
142987.16999817 485692.77999878 16.80999947
142986.94000244 485692.61000061 16.90999985
142987.19999695 485692.87000275 11.43000031
142986.84999847 485692.58000183 13.97999954
142987.18000031 485692.91000366 6.90000010
142986.69999695 485692.48999786 12.30000019
142987.01999664 485692.87000275 0.57999998
142986.34999847 485692.26000214 9.90999985
142986.48000336 485692.44999695 1.98000002
142985.59999847 485691.62000275 16.43000031
142986.25000000 485692.27999878 1.86000001
142985.30999756 485691.38999939 17.81999969
142985.70999908 485691.80000305 8.85000038
142985.06999969 485691.22000122 18.01000023
142985.12000275 485691.26000214 16.98999977
142985.19000244 485691.33999634 15.27000046
142984.90000153 485691.09999847 16.76000023
142985.23999786 485691.51999664 3.50000000
142984.66999817 485691.00000000 11.57999992
142985.11000061 485691.44999695 1.08000004
142984.25000000 485690.62999725 16.04999924
142984.48999786 485690.87000275 10.40999985
142984.69999695 485691.08999634 5.44000006
142984.75000000 485691.15000153 4.03999996
142984.20999908 485690.65000153 11.72000027
142984.26000214 485690.70999908 10.34000015
142984.55999756 485691.01999664 3.01999998
142983.98000336 485690.48000336 11.80000019
142984.11000061 485690.62000275 8.46000004
142984.33999634 485690.84999847 2.84999990
142984.37000275 485690.87999725 2.19000006
142984.44000244 485690.95999908 0.27000001
142984.08999634 485690.66000366 3.24000001
142984.12999725 485690.70999908 2.22000003
142983.97000122 485690.61000061 0.31000000
142983.48000336 485690.16999817 6.78000021
142983.66999817 485690.37000275 1.98000002
142983.73000336 485690.43000031 0.47999999
142982.90000153 485689.62999725 15.93999958
142983.22000122 485689.97000122 7.51000023
142983.48999786 485690.25000000 0.66000003
142982.90000153 485689.69999695 9.96000004
142987.06999969 485692.51999664 13.32999992
142987.16000366 485692.62000275 11.36999989
142986.88999939 485692.41000366 12.25000000
142987.19000244 485692.76999664 0.91000003
142986.19000244 485691.81999969 17.60000038
142986.26000214 485691.88999939 16.04999924
142985.93000031 485691.62000275 18.31999969
142986.72000122 485692.41999817 0.97000003
142986.09999847 485691.84999847 9.47999954
142986.44000244 485692.19999695 1.83000004
142985.50000000 485691.30000305 17.87999916
142986.22000122 485692.04000092 1.69000006
142985.31999969 485691.19000244 16.68000031
142986.01999664 485691.90000153 0.86000001
142985.43000031 485691.44000244 3.47000003
142984.88999939 485690.94000244 10.75000000
142984.69000244 485690.80000305 10.21000004
142984.76000214 485690.87999725 8.36999989
142984.90000153 485691.01999664 5.19000006
142984.54000092 485690.70999908 8.28999996
142984.20999908 485690.44000244 10.68000031
142984.55000305 485690.80000305 2.21000004
142984.40000153 485690.70999908 0.30000001
142983.88999939 485690.25000000 7.19000006
142984.15000153 485690.51999664 0.60000002
142983.44999695 485689.86000061 12.40999985
142983.05999756 485689.51999664 16.61000061
142982.90000153 485689.41000366 15.03999996
142983.09999847 485689.62999725 9.76000023
142983.45999908 485690.01999664 0.17000000
142982.62999725 485689.20999908 15.94999981
142983.22000122 485689.83999634 0.28000000
142982.69000244 485689.33999634 8.39999962
142982.72000122 485689.45999908 1.17999995
142982.29000092 485689.06999969 6.50000000
142987.36000061 485692.23999786 17.79999924
142987.12000275 485692.12000275 13.17000008
142987.22000122 485692.22000122 11.13000011
142987.41999817 485692.41999817 6.82999992
142987.01000214 485692.06999969 10.73999977
142987.22000122 485692.27999878 6.19999981
142987.33000183 485692.38999939 3.88000011
142987.11000061 485692.23000336 3.70000005
142987.31999969 485692.44999695 -0.95999998
142986.23000336 485691.40000153 17.81999969
142987.08000183 485692.26000214 -0.73000002
142985.94999695 485691.19000244 18.84000015
142986.09999847 485691.33999634 15.64000034
142985.84999847 485691.13999939 16.17000008
142985.62000275 485690.97000122 16.27000046
142985.94000244 485691.30000305 8.98999977
142986.26999664 485691.63999939 1.48000002
142985.48000336 485690.88999939 14.25000000
142986.04000092 485691.47000122 1.37000000
142985.16000366 485690.63999939 16.22999954
142985.25000000 485690.73000336 14.22999954
142985.20999908 485690.76000214 9.68999958
142985.48000336 485691.02999878 3.40000010
142984.68000031 485690.26999664 16.94000053
142985.05999756 485690.66000366 7.94999981
142985.18000031 485690.79000092 4.96999979
142984.93000031 485690.59999847 5.55000019
142984.19000244 485689.90000153 17.77000046
142984.33000183 485690.04000092 14.55000019
142984.83999634 485690.56999969 2.07999992
142984.38999939 485690.16999817 7.40999985
142984.66999817 485690.47000122 0.36000001
142983.79000092 485689.62000275 16.59000015
142984.16999817 485690.01999664 7.13000011
142983.59999847 485689.48000336 15.78999996
142983.76000214 485689.66000366 11.60000038
142983.40000153 485689.34999847 14.97999954
142983.44000244 485689.38999939 13.97000027
142983.43000031 485689.52999878 2.02999997
142982.97000122 485689.12000275 8.07999992
142982.63999939 485688.83999634 10.92000008
142982.68000031 485688.87999725 9.89000034
142982.37999725 485688.62999725 11.85000038
142982.51999664 485688.79000092 7.71999979
142982.58000183 485688.84999847 6.13000011
142987.36000061 485691.87999725 12.57999992
142987.52999878 485692.05000305 8.86999989
142987.18000031 485691.76000214 11.40999985
142987.22000122 485691.80000305 10.65999985
142987.30999756 485691.88999939 8.73999977
142987.55000305 485692.13999939 3.48000002
142986.75000000 485691.38999939 15.71000004
142987.04000092 485691.69000244 9.39000034
142987.18000031 485691.81999969 6.48000002
142986.20999908 485690.97000122 17.54999924
142986.87000275 485691.62999725 3.17000008
142986.63999939 485691.45999908 3.04999995
142985.73000336 485690.61000061 18.21999931
142985.83999634 485690.72000122 15.81000042
142986.41000366 485691.30000305 2.84999990
142985.55999756 485690.48999786 17.10000038
142985.70999908 485690.65000153 13.53999996
142985.93000031 485690.87000275 8.60000038
142986.30000305 485691.25000000 0.05000000
142986.01999664 485691.02999878 1.13000000
142985.44999695 485690.51999664 8.93000031
142984.83000183 485689.94000244 18.34000015
142985.27999878 485690.40000153 7.61000013
142985.58000183 485690.70999908 0.54000002
142984.91000366 485690.08999634 10.84000015
142984.43000031 485689.66000366 16.94000053
142984.88999939 485690.13999939 5.65000010
142985.05000305 485690.30999756 1.75999999
142984.26000214 485689.55000305 15.59000015
142984.00000000 485689.34999847 16.45000076
142984.04000092 485689.38999939 15.44999981
142983.79000092 485689.19999695 15.96000004
142983.87999725 485689.30000305 13.67000008
142983.51000214 485688.98000336 17.25000000
142983.66000366 485689.12999725 13.59000015
142983.73999786 485689.22000122 11.51000023
142983.41999817 485688.94999695 13.81000042
142983.59999847 485689.15000153 9.10999966
142983.12000275 485688.70999908 15.75000000
142983.05999756 485688.72000122 11.31999969
142982.83999634 485688.56999969 10.89000034
142982.58999634 485688.37000275 11.60000038
142982.63999939 485688.43000031 10.06999969
142982.33999634 485688.25000000 5.76999998
142987.81999969 485691.68000031 16.53000069
142987.58000183 485691.50000000 16.94000053
142987.68000031 485691.59999847 14.80000019
142987.43000031 485691.41000366 15.22999954
142987.69000244 485691.66000366 9.82999992
142987.18000031 485691.22000122 15.71000004
142987.47000122 485691.50000000 9.64000034
142987.62999725 485691.66999817 6.11000013
142987.23999786 485691.33999634 9.43999958
142987.62999725 485691.73000336 1.11000001
142986.58000183 485690.73999786 18.95999908
142986.86000061 485691.01999664 12.81000042
142987.01999664 485691.18000031 9.23999977
142987.40000153 485691.55000305 1.14999998
142986.36000061 485690.56999969 18.85000038
142986.83999634 485691.05000305 8.30000019
142987.16000366 485691.37999725 1.19000006
142986.12999725 485690.41000366 18.76000023
142986.22000122 485690.48999786 16.94000053
142986.63999939 485690.91999817 7.57000017
142986.02999878 485690.37000275 16.04999924
142986.43000031 485690.76999664 7.07999992
142986.51999664 485690.86000061 4.94000006
142985.90000153 485690.30000305 13.77999973
142986.30000305 485690.69999695 4.75000000
142985.48000336 485689.93000031 18.22999954
142985.63999939 485690.08999634 14.59000015
142985.37999725 485689.88999939 15.44999981
142985.51000214 485690.02999878 12.27999973
142985.26000214 485689.83999634 12.76000023
142985.48000336 485690.06999969 7.44999981
142984.84999847 485689.48000336 17.18000031
142984.90000153 485689.54000092 15.86999989
142985.02999878 485689.66000366 12.89000034
142985.13999939 485689.77999878 10.22000027
142984.59999847 485689.29000092 17.72999954
142984.79000092 485689.48000336 13.21000004
142984.55000305 485689.30000305 13.46000004
142984.75000000 485689.51000214 8.50000000
142984.30999756 485689.12000275 13.65999985
142984.50000000 485689.31999969 8.97000027
142984.58000183 485689.40000153 6.94999981
142984.76999664 485689.59999847 2.22000003
142983.98999786 485688.86000061 16.02000046
142984.06999969 485688.94999695 13.86999989
142984.26000214 485689.13999939 9.27999973
142983.79000092 485688.72000122 15.23999977
142983.95999908 485688.88999939 11.10999966
142984.01999664 485688.95999908 9.47000027
142984.33999634 485689.29000092 1.30999994
142983.72000122 485688.70999908 11.30000019
142984.09999847 485689.12000275 1.33000004
142983.29000092 485688.33000183 16.65999985
142983.87000275 485688.94000244 1.33000004
142983.40000153 485688.51999664 7.57999992
142983.48000336 485688.61000061 5.38999987
142983.15000153 485688.33999634 7.94999981
142983.38999939 485688.58999634 1.59000003
142982.87000275 485688.11000061 9.51000023
142983.00000000 485688.25000000 5.86999989
142982.73999786 485688.04000092 6.76000023
142982.48000336 485687.84999847 7.36999989
142982.00000000 485687.48000336 8.05000019
142982.02999878 485687.51999664 6.92999983
142987.55999756 485691.27999878 13.64000034
142987.40000153 485691.16999817 12.30000019
142986.40000153 485690.34999847 19.10000038
142986.29000092 485690.30000305 16.54999924
142986.51000214 485690.51999664 11.69999981
142986.70999908 485690.73000336 7.17999983
142986.01000214 485690.08000183 17.82999992
142986.05999756 485690.12999725 16.64999962
142986.13999939 485690.20999908 14.80000019
142986.48999786 485690.56999969 6.88999987
142986.29000092 485690.41999817 6.23999977
142986.55000305 485690.69000244 0.23000000
142985.80999756 485690.00000000 11.93999958
142986.08000183 485690.27999878 5.59000015
142985.37000275 485689.61000061 16.92000008
142985.81999969 485690.06999969 6.40000010
142985.68000031 485690.00000000 4.15000010
142985.43000031 485689.81999969 4.42000008
142985.62000275 485690.01000214 -0.16000000
142984.95999908 485689.38999939 10.36999989
142985.11000061 485689.55000305 6.59000015
142984.55000305 485689.02999878 14.85999966
142984.72000122 485689.22000122 10.51000023
142984.87000275 485689.37000275 6.80000019
142985.02999878 485689.52999878 2.93000007
142984.47000122 485689.01999664 11.05000019
142984.55000305 485689.11000061 8.94999981
142984.62999725 485689.19000244 7.13000011
142984.77999878 485689.33999634 3.35999990
142984.01999664 485688.62000275 16.67000008
142984.12000275 485688.73000336 14.10999966
142984.00000000 485688.68000031 11.25000000
142983.55999756 485688.36000061 10.81999969
142983.59999847 485688.47000122 3.58999991
142983.22000122 485688.13999939 7.63000011
142983.26999664 485688.19999695 6.21000004
142983.37000275 485688.30000305 3.59999990
142983.13999939 485688.12999725 3.54999995
142982.59999847 485687.70999908 5.42000008
142982.25000000 485687.41000366 8.90999985
142982.02999878 485687.25000000 8.53999996
142981.86000061 485687.15000153 6.82000017
142987.97000122 485690.98999786 17.45999908
142987.91999817 485690.98999786 13.76000023
142987.72000122 485690.84999847 13.10000038
142987.50000000 485690.69999695 12.85999966
142986.76000214 485690.06999969 19.12000084
142987.05000305 485690.41999817 7.67999983
142986.12000275 485689.61000061 18.27000046
142986.22000122 485689.70999908 16.04000092
142986.37000275 485689.86000061 12.69999981
142985.98999786 485689.55000305 16.00000000
142986.56999969 485690.12000275 2.84999990
142986.00000000 485689.62000275 10.47000027
142986.19000244 485689.80999756 6.15999985
142985.58000183 485689.26000214 14.96000004
142985.73000336 485689.41000366 11.43999958
142985.51999664 485689.26000214 10.93000031
142985.93000031 485689.68000031 1.13999999
142985.56999969 485689.37000275 4.23999977
142985.16999817 485689.02999878 8.31000042
142985.33000183 485689.19000244 4.40999985
142984.76000214 485688.66999817 12.84000015
142984.93000031 485688.84999847 8.50000000
142985.05000305 485688.98000336 5.53000021
142984.54000092 485688.51000214 12.68000031
142984.61000061 485688.58999634 10.77000046
142984.66000366 485688.63999939 9.48999977
142984.94000244 485688.91999817 2.68000007
142984.22000122 485688.25000000 14.97999954
142984.41000366 485688.44999695 10.07999992
142983.98000336 485688.06999969 15.31000042
142984.16999817 485688.26999664 10.31999969
142984.37000275 485688.48000336 5.15000010
142983.76000214 485687.91000366 15.09000015
142983.98999786 485688.15000153 9.10999966
142984.05000305 485688.22000122 7.38000011
142984.12999725 485688.30000305 5.34999990
142984.19000244 485688.36000061 3.76999998
142983.52999878 485687.73999786 15.09000015
142983.73000336 485687.94999695 9.81000042
142983.87999725 485688.11000061 5.78999996
142983.50000000 485687.77999878 9.90999985
142983.62000275 485687.91000366 6.51999998
142983.23999786 485687.58000183 10.57999992
142983.37000275 485687.70999908 7.19000006
142983.41000366 485687.76000214 6.03000021
142983.09999847 485687.51000214 8.06000042
142983.16999817 485687.58000183 6.26999998
142982.98000336 485687.44999695 5.07999992
142982.66999817 485687.19999695 7.19999981
142982.43000031 485687.01999664 7.44999981
142982.18000031 485686.83000183 8.05000019
142987.65000153 485690.45999908 16.64999962
142987.72000122 485690.51999664 15.28999996
142987.43000031 485690.30000305 16.53000069
142987.12000275 485690.05000305 18.37000084
142987.22000122 485690.13999939 16.27000046
142987.58999634 485690.51999664 8.14000034
142986.87000275 485689.84999847 18.92000008
142986.93000031 485689.91000366 17.60000038
142987.33999634 485690.33000183 8.51000023
142986.50000000 485689.61000061 16.98999977
142986.63999939 485689.75000000 13.81999969
142986.87999725 485690.05000305 3.13000011
142986.26000214 485689.48999786 12.15999985
142986.66000366 485689.88999939 2.99000001
142986.70999908 485689.94000244 1.76999998
142986.76999664 485690.01000214 0.34000000
142985.83000183 485689.12000275 16.75000000
142986.08000183 485689.36000061 11.10999966
142985.75000000 485689.09999847 13.31000042
142985.51999664 485688.93000031 13.42000008
142985.58000183 485688.98999786 11.96000004
142986.01999664 485689.44000244 1.35000002
142985.81999969 485689.30000305 0.50000000
142984.87000275 485688.45999908 12.48999977
142985.01000214 485688.59999847 9.09000015
142985.19000244 485688.79000092 4.59999990
142984.56999969 485688.22000122 14.25000000
142984.84999847 485688.51000214 7.28000021
142985.08000183 485688.75000000 1.45000005
142984.47000122 485688.18000031 11.18000031
142984.55999756 485688.27999878 8.65999985
142984.61000061 485688.33000183 7.42999983
142984.11000061 485687.87999725 14.39000034
142984.30000305 485688.06999969 9.52000046
142983.87999725 485687.70999908 14.36999989
142984.12999725 485687.97000122 7.88000011
142983.98999786 485687.90000153 5.36000013
142983.47000122 485687.48999786 6.90000010
142983.31999969 485687.40000153 4.84999990
142983.02999878 485687.18000031 6.21999979
142982.27999878 485686.61000061 7.84999990
142988.22000122 485690.44000244 14.03999996
142988.33999634 485690.55000305 11.61999989
142987.81999969 485690.09999847 17.84000015
142988.26999664 485690.54000092 8.35999966
142987.70999908 485690.05000305 15.13000011
142987.94999695 485690.29000092 10.02000046
142987.44999695 485689.84999847 15.93000031
142987.75000000 485690.15000153 9.51000023
142986.87000275 485689.38999939 18.70999908
142987.04000092 485689.55999756 15.01000023
142986.66000366 485689.23999786 18.37999916
142986.79000092 485689.37000275 15.36999989
142987.31999969 485689.90000153 3.55999994
142986.41000366 485689.05000305 18.95999908
142986.48000336 485689.11000061 17.44000053
142987.11000061 485689.75000000 3.10999990
142987.22000122 485689.86000061 0.47000000
142986.66999817 485689.37000275 7.90000010
142986.00000000 485688.76000214 17.97999954
142986.04000092 485688.80000305 16.97999954
142986.26000214 485689.01999664 11.89999962
142985.91999817 485688.73999786 14.53999996
142986.05000305 485688.87000275 11.47000027
142985.95999908 485688.83999634 8.21000004
142985.47000122 485688.41000366 14.46000004
142985.55999756 485688.50000000 12.18999958
142985.73000336 485688.66999817 8.18000031
142986.00000000 485688.94999695 1.59000003
142985.25000000 485688.25000000 14.21000004
142985.76000214 485688.76999664 1.70000005
142984.93000031 485687.98000336 16.61000061
142985.01000214 485688.06999969 14.47999954
142984.77999878 485687.88999939 14.69999981
142984.48000336 485687.65000153 16.48999977
142984.91999817 485688.11000061 5.21000004
142984.56999969 485687.81999969 8.13000011
142984.70999908 485687.97000122 4.51000023
142984.34999847 485687.65000153 8.10000038
142984.01000214 485687.37000275 10.85000038
142984.06999969 485687.44000244 9.30000019
142983.87000275 485687.30000305 8.32999992
142984.01000214 485687.44999695 4.65000010
142983.52999878 485687.01000214 11.60999966
142983.47000122 485687.02999878 6.65000010
142983.51999664 485687.06999969 5.42999983
142983.01000214 485686.69000244 6.57999992
142982.76000214 485686.48999786 7.30000019
142988.11000061 485690.05999756 17.50000000
142988.11000061 485690.12000275 12.72999954
142988.20999908 485690.20999908 10.68000031
142987.50000000 485689.62999725 15.94999981
142987.80999756 485689.94000244 9.26000023
142987.19000244 485689.37999725 17.77000046
142987.58999634 485689.83999634 3.79999995
142986.70999908 485689.01999664 18.30999947
142986.86000061 485689.16999817 15.06999969
142987.38999939 485689.69999695 3.00000000
142987.43000031 485689.75000000 2.08999991
142986.50000000 485688.87000275 18.02000046
142987.26999664 485689.63999939 0.47999999
142986.47000122 485688.90000153 13.56000042
142986.69000244 485689.12999725 8.34000015
142986.80999756 485689.23999786 5.73999977
142986.98000336 485689.41999817 1.69000006
142986.19000244 485688.68000031 14.59000015
142986.58999634 485689.08999634 5.28000021
142986.08000183 485688.63999939 11.81999969
142985.98000336 485688.59999847 8.72000027
142985.94999695 485688.62999725 4.01999998
142986.04000092 485688.72000122 1.78999996
142986.12000275 485688.80999756 -0.19000000
142985.19999695 485687.91999817 16.73999977
142985.37000275 485688.09999847 12.57999992
142985.51999664 485688.26000214 8.75000000
142985.83999634 485688.58000183 1.03999996
142985.12000275 485687.91000366 12.97000027
142984.77999878 485687.62000275 15.98999977
142984.97000122 485687.88999939 5.23999977
142985.12000275 485688.05000305 1.22000003
142984.73000336 485687.72000122 5.30000019
142984.34999847 485687.38999939 9.18999958
142984.48000336 485687.52999878 5.76999998
142984.52999878 485687.56999969 4.59000015
142984.12000275 485687.20999908 9.34000015
142983.58000183 485686.79000092 11.52000046
142983.61000061 485686.90000153 4.26000023
142988.69999695 485689.94999695 14.64000034
142988.63999939 485689.94999695 10.93000031
142988.02999878 485689.51999664 9.34000015
142988.02999878 485689.58000183 4.11000013
142987.83999634 485689.44999695 3.15000010
142987.88999939 485689.50000000 2.18000007
142987.94999695 485689.55999756 0.75999999
142987.06999969 485688.73999786 15.31999969
142987.34999847 485689.01999664 9.05000019
142987.09999847 485688.83000183 9.51000023
142986.55000305 485688.34999847 16.70999908
142987.01000214 485688.80000305 6.15999985
142987.08000183 485688.87000275 4.63999987
142986.34999847 485688.19999695 16.22999954
142986.47000122 485688.31999969 13.39000034
142986.23000336 485688.13999939 13.71000004
142986.30000305 485688.20999908 12.09000015
142986.55999756 485688.48000336 5.73999977
142986.05999756 485688.02999878 12.28999996
142986.16999817 485688.13999939 9.71000004
142986.13999939 485688.18000031 4.88000011
142986.19000244 485688.23000336 3.61999989
142986.25000000 485688.29000092 2.09999990
142986.08999634 485688.19000244 0.31999999
142985.41999817 485687.58000183 11.10999966
142985.72000122 485687.87999725 3.68000007
142985.81999969 485687.98000336 1.21000004
142985.04000092 485687.25000000 14.97000027
142985.19000244 485687.40000153 11.28999996
142985.58000183 485687.80000305 1.38000000
142985.33000183 485687.62000275 1.53999996
142984.70999908 485687.12000275 5.63999987
142984.87999725 485687.29000092 1.13999999
142984.31999969 485686.77999878 9.89000034
142984.44000244 485686.90000153 6.69000006
142984.51000214 485686.98000336 4.73000002
142984.23999786 485686.76999664 5.78999996
142984.41999817 485686.94999695 0.98000002
142984.01000214 485686.59999847 5.76999998
142984.19000244 485686.79000092 0.85000002
142983.55000305 485686.19000244 12.00000000
142983.62000275 485686.26999664 10.01000023
142983.33999634 485686.04000092 11.56000042
142988.66999817 485689.69000244 3.44000006
142987.93000031 485689.01999664 14.35999966
142988.16999817 485689.26000214 9.18000031
142988.38999939 485689.48000336 4.28000021
142987.93000031 485689.08000183 9.39999962
142988.25000000 485689.40000153 2.24000001
142988.31999969 485689.45999908 0.83999997
142987.69999695 485688.91000366 9.22000027
142988.01999664 485689.23000336 2.24000001
142987.41999817 485688.69000244 10.47000027
142986.90000153 485688.23000336 17.00000000
142987.37000275 485688.69999695 6.38000011
142986.70999908 485688.09999847 16.21999931
142986.84999847 485688.23999786 12.93000031
142986.52999878 485687.98999786 14.94999981
142986.98999786 485688.44000244 4.36999989
142986.20999908 485687.73000336 17.18000031
142986.43000031 485687.94000244 12.09000015
142986.68000031 485688.19999695 6.07000017
142985.97000122 485687.54000092 17.56999969
142986.26999664 485687.84999847 10.32999992
142985.94000244 485687.58000183 12.78999996
142986.02999878 485687.66999817 10.56000042
142986.05999756 485687.69999695 9.85000038
142986.37999725 485688.01999664 2.19000006
142985.98000336 485687.68000031 6.28000021
142986.08000183 485687.79000092 3.67000008
142986.26000214 485687.95999908 -0.63999999
142985.51000214 485687.26000214 12.22000027
142985.94000244 485687.70999908 1.42999995
142985.27999878 485687.08999634 12.18999958
142985.69999695 485687.52999878 1.45000005
142984.91999817 485686.86000061 9.50000000
142985.19000244 485687.13999939 2.47000003
142984.83000183 485686.83999634 5.88999987
142984.41999817 485686.48000336 10.65999985
142984.18000031 485686.30000305 10.93000031
142983.94000244 485686.12000275 11.22000027
142983.69999695 485685.94000244 11.52000046
142983.44999695 485685.75000000 12.11999989
142983.23000336 485685.59999847 11.65999985
142989.08000183 485689.48000336 11.97999954
142988.70999908 485689.16999817 14.93000031
142988.43000031 485688.94999695 16.05999947
142988.58999634 485689.11000061 12.72000027
142988.97000122 485689.48000336 4.65000010
142989.04000092 485689.55000305 3.11999989
142988.37000275 485688.94999695 12.47000027
142988.51000214 485689.08999634 9.46000004
142988.73999786 485689.30999756 4.55999994
142987.87999725 485688.51999664 18.14999962
142988.16000366 485688.79000092 12.11999989
142988.40000153 485689.02999878 6.88999987
142988.66999817 485689.30000305 0.91000003
142987.87999725 485688.58000183 13.05000019
142987.93000031 485688.62999725 11.89999962
142988.37000275 485689.05999756 2.42000008
142987.70999908 485688.47000122 11.73999977
142987.51999664 485688.33999634 10.85999966
142987.72000122 485688.54000092 6.46999979
142987.55000305 485688.43000031 4.94000006
142987.69999695 485688.58000183 1.61000001
142986.87000275 485687.80999756 15.31999969
142986.97000122 485687.91000366 13.00000000
142986.79000092 485687.79000092 11.98999977
142987.11000061 485688.12000275 4.36000013
142986.37999725 485687.44000244 16.18000031
142986.43000031 485687.48999786 14.97999954
142986.45999908 485687.52999878 14.14000034
142986.23999786 485687.36000061 14.09000015
142986.38999939 485687.51000214 10.50000000
142986.56999969 485687.69999695 6.09999990
142986.65000153 485687.77999878 4.19999981
142985.91999817 485687.09999847 16.37000084
142986.01000214 485687.19000244 14.19999981
142986.12000275 485687.30999756 11.39000034
142985.88999939 485687.13999939 11.34000015
142985.94000244 485687.19000244 10.06000042
142986.11000061 485687.36000061 6.05000019
142985.68000031 485686.98000336 11.03999996
142985.97000122 485687.27999878 3.64000010
142986.05000305 485687.37000275 1.62000000
142985.33000183 485686.69000244 14.00000000
142985.44000244 485686.80000305 11.27999973
142985.58999634 485687.02999878 1.41999996
142984.81999969 485686.30000305 15.39999962
142985.04000092 485686.52999878 9.73999977
142984.69999695 485686.31999969 6.40999985
142984.76000214 485686.37999725 4.76999998
142984.47000122 485686.15000153 6.30999994
142984.27999878 485686.01999664 5.26999998
142984.01000214 485685.80999756 6.32999992
142983.75000000 485685.61000061 7.00000000
142989.01999664 485689.15000153 17.70000076
142988.88999939 485689.06999969 15.71000004
142989.08000183 485689.26000214 11.69999981
142988.66999817 485688.91000366 15.67000008
142988.47000122 485688.76999664 14.97000027
142988.94999695 485689.23999786 4.73999977
142988.26999664 485688.62999725 14.47000027
142988.83000183 485689.19000244 2.21000004
142988.88999939 485689.23999786 1.00000000
142987.91000366 485688.33999634 17.23999977
142988.30999756 485688.72000122 8.64000034
142988.61000061 485689.02999878 1.92999995
142987.66999817 485688.15000153 17.61000061
142987.87999725 485688.36000061 12.89000034
142987.88999939 485688.43000031 7.71999979
142987.94000244 485688.48000336 6.55999994
142987.69999695 485688.30999756 6.59999990
142987.76999664 485688.37000275 5.07999992
142987.55999756 485688.22000122 4.53000021
142987.33000183 485688.05999756 4.42999983
142986.55000305 485687.33000183 17.47999954
142986.69000244 485687.47000122 14.18000031
142986.34999847 485687.19999695 16.56999969
142986.18000031 485687.08999634 15.27999973
142986.30000305 485687.19999695 12.55000019
142986.43000031 485687.33000183 9.38000011
142986.06999969 485687.02999878 12.50000000
142986.33999634 485687.30999756 5.94999981
142986.52999878 485687.51000214 1.05999994
142985.93000031 485686.95999908 10.21000004
142986.09999847 485687.13999939 5.88000011
142985.63999939 485686.73000336 11.77000046
142985.69000244 485686.77999878 10.40999985
142985.86000061 485686.95999908 6.15000010
142986.02999878 485687.12999725 1.79999995
142985.62999725 485686.77999878 6.25000000
142985.81999969 485686.98000336 1.42999995
142985.01999664 485686.22000122 15.86999989
142985.15000153 485686.36000061 12.52999973
142985.26999664 485686.48000336 9.52000046
142985.58000183 485686.80000305 1.41999996
142984.83000183 485686.08999634 15.06999969
142984.87000275 485686.13999939 13.81999969
142985.01999664 485686.29000092 9.93999958
142984.98000336 485686.31999969 4.86000013
142984.30000305 485685.75000000 10.85999966
142984.44000244 485685.90000153 6.88000011
142984.59999847 485686.06999969 2.60999990
142984.20999908 485685.73999786 6.76000023
142984.26000214 485685.77999878 5.53999996
142983.94999695 485685.52999878 7.65000010
142988.91000366 485688.54000092 17.65999985
142989.06999969 485688.75000000 9.42000008
142988.58999634 485688.33000183 14.82999992
142988.83000183 485688.56999969 9.59000015
142988.30999756 485688.11000061 16.01000023
142988.36000061 485688.16000366 14.98999977
142988.52999878 485688.33000183 11.11999989
142988.19000244 485688.05000305 13.64999962
142988.25000000 485688.09999847 12.39000034
142987.98000336 485687.90000153 13.23999977
142987.62000275 485687.61000061 16.05999947
142987.66999817 485687.65000153 15.09000015
142987.83000183 485687.80999756 11.40999985
142987.87000275 485687.91000366 5.19999981
142988.04000092 485688.08000183 1.45000005
142987.81999969 485687.91999817 1.12000000
142987.00000000 485687.16000366 14.72999954
142986.66999817 485686.88999939 17.17000008
142987.08999634 485687.30999756 7.26000023
142987.26000214 485687.48000336 3.16000009
142986.45999908 485686.73999786 16.81999969
142986.51999664 485686.80999756 15.22000027
142986.38999939 485686.73999786 12.81000042
142986.44000244 485686.77999878 11.81999969
142986.13999939 485686.54000092 13.56999969
142986.50000000 485686.91000366 4.59999990
142985.91999817 485686.38999939 13.10999966
142986.19000244 485686.66000366 6.50000000
142985.66999817 485686.19000244 13.82999992
142985.41999817 485686.00000000 14.44999981
142985.22000122 485685.87000275 13.57999992
142985.36000061 485686.01000214 9.93999958
142985.58999634 485686.25000000 3.92000008
142984.98999786 485685.69000244 13.73999977
142985.36000061 485686.08000183 3.95000005
142984.80000305 485685.56999969 12.57999992
142984.86000061 485685.62999725 10.97999954
142984.62000275 485685.44999695 11.22000027
142984.93000031 485685.76999664 3.01999998
142984.34999847 485685.30999756 6.03999996
142984.41999817 485685.37999725 4.15999985
142988.87999725 485688.09999847 18.12000084
142988.62000275 485687.90000153 18.72999954
142988.48000336 485687.81999969 16.89999962
142988.55000305 485687.88999939 15.39000034
142988.91000366 485688.23000336 7.78000021
142989.18000031 485688.50000000 1.75999999
142988.31999969 485687.72000122 15.47999954
142988.45999908 485687.84999847 12.35999966
142988.58000183 485687.97000122 9.85999966
142988.36000061 485687.80999756 9.56999969
142988.44000244 485687.88999939 7.84000015
142987.93000031 485687.44000244 14.10000038
142988.04000092 485687.55000305 11.68999958
142987.69000244 485687.26000214 14.43999958
142988.26000214 485687.83000183 1.36000001
142987.43000031 485687.05999756 15.14000034
142987.86000061 485687.50000000 5.07000017
142987.93000031 485687.55999756 3.60999990
142987.20999908 485686.90000153 14.89999962
142987.29000092 485686.98999786 12.89999962
142987.00000000 485686.75000000 14.52000046
142987.31999969 485687.06999969 6.92999983
142987.44000244 485687.19000244 4.15999985
142986.91999817 485686.73999786 10.96000004
142986.55000305 485686.43000031 14.28999996
142986.65000153 485686.52999878 11.82999992
142986.94000244 485686.81999969 4.78999996
142986.41999817 485686.34999847 12.02000046
142986.80000305 485686.73999786 2.72000003
142986.27999878 485686.27999878 9.56999969
142986.44999695 485686.44999695 5.55999994
142985.80999756 485685.87000275 15.57999992
142985.91000366 485685.97000122 13.14000034
142986.20999908 485686.26999664 5.57999992
142986.33000183 485686.38999939 2.64000010
142985.58999634 485685.70999908 15.53999996
142985.76999664 485685.88999939 11.02000046
142985.55999756 485685.73999786 10.39999962
142985.18000031 485685.41999817 14.30000019
142985.61000061 485685.86000061 3.20000005
142985.09999847 485685.40000153 10.53999996
142985.26000214 485685.56999969 6.03000021
142985.08000183 485685.45999908 4.63000011
142984.63999939 485685.06999969 10.43000031
142984.91000366 485685.33999634 3.08999991
142984.55000305 485685.04000092 6.48999977
142984.13999939 485684.76000214 4.86999989
142989.30000305 485687.90000153 17.00000000
142989.02999878 485687.69000244 17.87999916
142989.34999847 485688.00000000 11.17000008
142989.41000366 485688.05999756 9.81000042
142988.88999939 485687.62000275 15.92000008
142988.98999786 485687.70999908 13.75000000
142989.27999878 485687.98999786 7.55999994
142988.58999634 485687.37999725 17.51000023
142989.33000183 485688.09999847 1.48000002
142988.73000336 485687.56999969 9.44999981
142988.83000183 485687.66000366 7.30000019
142989.08999634 485687.91000366 1.75999999
142988.58000183 485687.48000336 7.65999985
142988.62999725 485687.51999664 6.61999989
142988.01999664 485686.98999786 15.06999969
142988.11000061 485687.12999725 7.90000010
142988.30000305 485687.30999756 3.71000004
142987.88999939 485686.97000122 7.63999987
142988.01000214 485687.08000183 4.98000002
142987.26999664 485686.41999817 16.67000008
142987.58999634 485686.79000092 3.89000010
142987.69000244 485686.88999939 1.45000005
142987.31999969 485686.58000183 4.73999977
142986.73999786 485686.06999969 12.96000004
142986.86000061 485686.19000244 10.06000042
142986.84999847 485686.23000336 4.80000019
142986.93000031 485686.30999756 2.77999997
142986.16000366 485685.59999847 16.12000084
142986.29000092 485685.73999786 12.85000038
142986.41999817 485685.86000061 9.65999985
142986.47000122 485685.91999817 8.34000015
142986.08000183 485685.58999634 12.22999954
142986.15000153 485685.66000366 10.47999954
142985.80000305 485685.37000275 13.67000008
142985.97000122 485685.54000092 9.23999977
142985.65000153 485685.27999878 11.56999969
142985.88999939 485685.51999664 5.40999985
142986.00000000 485685.62999725 2.63000011
142985.76000214 485685.44999695 2.81999993
142985.30000305 485685.12000275 2.58999991
142985.06999969 485684.94999695 2.35999990
142984.52999878 485684.52999878 4.55000019
142984.29000092 485684.36000061 4.48000002
142989.73999786 485688.08000183 15.77999973
142989.41999817 485687.81999969 17.62999916
142989.22000122 485687.69000244 17.02000046
142989.31999969 485687.77999878 15.05000019
142989.50000000 485687.94999695 11.23999977
142989.56999969 485688.02999878 9.61999989
142989.02999878 485687.55999756 16.21999931
142989.13999939 485687.66000366 14.00000000
142989.22000122 485687.79000092 7.28999996
142989.48999786 485688.05999756 1.47000003
142988.66000366 485687.30000305 14.39000034
142988.70999908 485687.34999847 13.36999989
142988.87999725 485687.51999664 9.60000038
142988.66000366 485687.36000061 9.27999973
142988.77999878 485687.48000336 6.63999987
142988.87999725 485687.56999969 4.59999990
142988.15000153 485686.91000366 15.59000015
142988.58999634 485687.33999634 5.80999994
142987.93000031 485686.75000000 15.40999985
142987.86000061 485686.73999786 11.78999996
142987.80999756 485686.76000214 7.57999992
142987.91999817 485686.87000275 4.94999981
142987.69000244 485686.69000244 5.07000017
