x y z
142946.362 485764.598 4.705
142946.094 485765.26 10.761000000000001
142946.369 485764.33400000003 4.854
142946.12900000002 485764.91000000003 10.312
142946.132 485764.674 10.528
142946.478 485763.043 3.7110000000000003
142946.475 485762.82800000004 4.069
142946.346 485761.912 8.558
142946.124 485762.193 13.86
142946.104 485762.053 14.562000000000001
142946.624 485760.283 3.498
142946.385 485760.87 8.861
142946.236 485761.167 12.292
142946.207 485761.015 13.234
142946.26 485760.612 12.407
142946.439 485759.996 8.587
142946.736 485758.981 2.2720000000000002
142946.443 485759.759 8.796
142946.64800000002 485759.056 4.428
142946.765 485758.657 1.951
142946.775 485758.375 2.047
142946.319 485759.699 12.034
142946.323 485759.457 12.261000000000001
142946.286 485758.94200000004 13.868
142946.31100000002 485758.647 13.608
142946.308 485758.461 13.92
142946.47400000002 485757.884 10.381
142946.211 485758.56 16.28
142946.506 485757.536 10.01
142946.525 485757.237 9.887
142946.305 485757.794 14.841000000000001
142946.823 485755.79600000003 4.08
142946.151 485757.908 18.624
142946.607 485756.325 8.969
142946.144 485757.689 19.080000000000002
142946.423 485756.722 13.185
142946.557 485756.253 10.335
142946.266 485757.04000000004 16.818
142946.584 485755.928 10.059000000000001
142946.24300000002 485756.91500000004 17.542
142946.413 485756.324 13.946
142946.589 485755.70900000003 10.219
142946.413 485756.106 14.213000000000001
142946.6 485755.452 10.25
142946.231 485756.51300000004 18.366
142946.343 485756.12 15.986
142946.533 485755.457 11.966000000000001
142946.336 485755.909 16.439
142946.271 485755.947 18.045
142946.215 485755.909 19.538
142946.434 485755.13800000004 14.887
142946.23500000002 485755.61600000004 19.393
142946.443 485754.88300000003 14.979000000000001
142946.238 485755.385 19.62
142946.873 485753.15 6.176
142946.739 485753.413 9.288
142946.891 485752.639 6.372
142946.937 485752.231 5.7090000000000005
142946.984 485752.06700000004 4.726
142946.642 485753.044 12.247
142946.945 485751.973 5.84
142946.95 485751.754 6.006
142946.539 485752.969 14.976
142946.593 485752.547 14.125
142946.777 485751.892 10.223
142946.482 485752.734 16.745
142946.613 485752.268 13.972
142946.865 485751.37200000003 8.644
142946.554 485752.038 15.766
142946.825 485751.075 10.05
142946.844 485750.762 9.956
142946.559 485751.55 16.274
142946.82200000001 485750.41500000004 10.96
142946.82 485750.206 11.275
142946.854 485749.836 10.891
142947.005 485748.653 8.521
142947.006 485748.419 8.789
142947.024 485748.118 8.716
142946.373 485766.07 8.999
142946.426 485765.646 8.179
142946.407 485765.28 9.135
142946.641 485764.493 4.107
142946.367 485765.174 10.290000000000001
142946.628 485764.297 4.696
142946.345 485765.018 11.063
142946.407 485764.808 9.736
142946.486 485763.867 8.904
142946.717 485762.86 4.24
142946.73 485762.582 4.252
142946.328 485762.837 14.273
142946.614 485761.625 8.47
142946.404 485761.86 13.534
142946.874 485760.26 3.5340000000000003
142946.642 485760.829 8.727
142946.86800000002 485760.061 3.934
142946.34 485761.639 15.464
142946.877 485759.804 4.0280000000000005
142946.471 485760.966 12.951
142946.709 485759.939 8.143
142947 485758.947 1.976
142946.598 485760.11600000004 10.769
142947.015 485758.691 1.9180000000000001
142946.918 485758.803 4.248
142946.573 485759.73600000003 11.913
142946.918 485758.55100000004 4.579
142946.579 485759.505 12.053
142946.448 485759.083 15.948
142946.468 485758.79000000004 15.801
142946.577 485758.413 13.484
142946.47400000002 485758.553 15.950000000000001
142946.55000000002 485758.292 14.348
142946.812 485757.381 8.765
142946.544 485758.08900000004 14.758000000000001
142946.72 485757.478 11.019
142946.78100000002 485757.265 9.709
142946.404 485758.357 17.995
142946.52 485757.956 15.537
142946.748 485757.164 10.700000000000001
142947.08000000002 485755.792 3.92
142946.807 485756.526 10.002
142946.861 485756.336 8.843
142946.68600000002 485756.70300000004 12.88
142946.41 485757.444 18.988
142946.554 485756.946 15.951
142946.585 485756.64400000003 15.548
142946.672 485756.341 13.706
142946.593 485756.379 15.681000000000001
142946.66700000002 485756.119 14.101
142946.489 485756.495 18.169
142946.584 485756.164 16.166
142946.782 485755.474 11.986
142946.553 485756.043 17.112000000000002
142946.54200000002 485755.86600000004 17.624
142946.454 485755.95900000003 19.755
142946.524 485755.71400000004 18.275000000000002
142946.692 485755.123 14.712
142946.51200000002 485755.291 19.123
142946.63700000002 485754.85000000003 16.47
142947.114 485753.174 6.388
142947.002 485753.367 9.028
142947.147 485752.853 5.939
142946.799 485753.868 13.559000000000001
142947.223 485752.376 4.605
142946.659 485754.12200000003 16.852
142946.889 485753.309 11.979000000000001
142947.021 485752.846 9.207
142947.192 485752.239 5.571
142946.897 485753.043 12.107000000000001
142946.923 485752.73600000003 11.836
142946.786 485753.003 14.997
142947.007 485752.22000000003 10.33
142947.127 485751.797 7.8
142946.738 485752.946 16.316
142947.021 485751.941 10.327
142947.104 485751.648 8.584
142946.742 485752.70300000004 16.524
142946.733 485752.54000000004 16.963
142946.804 485752.07300000003 15.734
142947.075 485751.106 10.001
142946.77 485751.95300000004 16.774
142946.79200000002 485751.657 16.57
142946.808 485751.393 16.505
142947.112 485750.305 10.075000000000001
142946.831 485751.066 16.312
142947.108 485750.077 10.48
142947.115 485749.82 10.613
142947.111 485749.604 10.986
142947.255 485748.873 8.23
142947.261 485748.62 8.392
142946.55000000002 485766.26 8.548
142946.549 485766.023 8.875
142946.574 485765.71400000004 8.621
142946.817 485764.662 3.676
142946.806 485764.501 4.168
142946.799 485764.28 4.65
142946.586 485764.764 9.52
142946.812 485763.776 4.949
142946.657 485763.837 8.887
142946.672 485763.545 8.854000000000001
142946.682 485763.284 8.919
142946.698 485762.773 9.162
142946.495 485762.835 14.321
142946.741 485761.996 9.058
142946.446 485762.783 15.633000000000001
142946.524 485762.517 13.965
142946.78 485761.645 8.5
142946.571 485762.11 13.263
142946.791 485761.36 8.573
142946.585 485761.851 13.221
142946.539 485761.799 14.476
142946.805 485760.88800000004 8.792
142947.052 485760.049 3.549
142946.503 485761.713 15.516
142946.66700000002 485761.15 12.008000000000001
142946.641 485761.016 12.851
142946.882 485759.957 8.002
142946.62 485760.635 13.887
142946.77 485760.11600000004 10.672
142947.187 485758.689 1.806
142947.083 485758.827 4.303
142946.74300000002 485759.771 11.825000000000001
142946.752 485759.53 11.904
142946.639 485758.824 15.707
142946.70500000002 485758.357 14.602
142946.71600000001 485758.076 14.684000000000001
142946.956 485757.24100000004 9.574
142946.526 485758.51 19.044
142946.522 485758.305 19.381
142947.25 485755.76900000003 3.892
142946.616 485757.76300000004 17.661
142946.98 485756.494 9.924
142946.53100000002 485757.81700000004 19.78
142946.722 485757.14900000003 15.712
142946.859 485756.67100000003 12.799
142946.69 485757.045 16.67
142946.845 485756.504 13.373000000000001
142946.765 485756.588 15.321
142946.842 485756.31700000004 13.678
142946.763 485756.371 15.645
142946.94 485755.75200000004 11.886000000000001
142946.74300000002 485756.195 16.361
142946.72 485756.045 17.139
142946.698 485755.917 17.887
142946.851 485755.37700000004 14.626
142947.144 485754.352 8.437
142946.684 485755.745 18.475
142946.67500000002 485755.548 18.958000000000002
142946.677 485755.316 19.185
142947.163 485753.606 8.893
142947.172 485753.364 8.97
142947.38 485752.628 4.546
142946.834 485754.33900000004 16.393
142946.963 485753.885 13.67
142947.185 485753.103 8.978
142947.18600000002 485752.855 9.269
142947.326 485752.358 6.2940000000000005
142947.076 485753.025 11.854000000000001
142946.84 485753.188 17.717
142947.02 485752.549 13.911
142947.274 485751.64900000003 8.547
142946.843 485752.94800000003 17.944
142946.918 485752.681 16.356
142946.867 485752.647 17.707
142947.134 485751.696 12.05
142946.942 485752.13800000004 16.434
142947.219 485751.15 10.572000000000001
142947.062 485751.487 14.173
142947.27300000002 485750.734 9.713000000000001
142946.941 485751.69 17.023
142947.01 485751.446 15.581
142947.01200000002 485751.23 15.8
142947.005 485751.041 16.227
142947.405 485749.607 7.763
142947.285 485749.811 10.571
142947.42 485749.097 8.008000000000001
142947.41700000002 485748.887 8.375
142947.46 485748.055 8.323
142946.763 485766.167 9.11
142947.051 485764.946 3.232
142946.824 485765.469 8.43
142946.831 485764.74 9.171
142947.044 485764.021 4.5840000000000005
142946.953 485764.109 6.819
142947.06 485763.55 4.771
142947.064 485763.326 4.966
142947.116 485762.916 4.1450000000000005
142946.891 485763.461 9.257
142947.125 485762.666 4.228
142946.779 485763.634 11.944
142946.888 485763.25800000003 9.573
142946.795 485763.363 11.887
142946.91700000002 485762.945 9.252
142946.804 485763.108 11.977
142946.649 485763.41500000004 15.555
142946.812 485762.856 12.037
142946.929 485762.45900000003 9.548
142946.72400000002 485762.954 14.188
142946.94700000001 485762.194 9.422
142946.64 485763.02 16.299
142946.644 485762.755 16.533
142946.774 485762.305 13.708
142946.801 485761.99 13.429
142947.046 485761.156 8.212
142946.679 485762.213 16.298000000000002
142946.826 485761.70900000003 13.146
142946.721 485761.865 15.648
142946.878 485761.082 12.6
142946.876 485760.865 12.926
142947.11000000002 485760.061 7.930000000000001
142947.003 485760.212 10.5
142947.424 485758.77 1.536
142946.688 485761.082 17.523
142946.856 485760.50200000004 13.92
142947.309 485758.943 4.25
142947.437 485758.506 1.536
142946.995 485759.805 11.222
142947.249 485758.93 5.804
142947.229 485758.751 6.534
142946.751 485759.064 18.442
142947.157 485757.656 9.802
142946.753 485758.832 18.719
142946.954 485758.129 14.414
142947.184 485757.331 9.528
142947.239 485756.923 8.631
142947.253 485756.648 8.61
142947.48 485755.858 3.781
142947.21 485756.583 9.813
142947.097 485756.726 12.535
142946.756 485757.695 20.079
142946.77300000002 485757.441 19.962
142947.01200000002 485756.604 14.877
142946.802 485757.107 19.617
142946.967 485756.083 16.671
142946.913 485756.059 18.103
142947.087 485755.449 14.414
142946.931 485755.78500000003 17.975
142947.052 485755.36 15.41
142946.88 485755.729 19.359
142946.899 485755.42100000003 19.275000000000002
142947.143 485754.56200000003 14.103
142947 485754.863 17.384
142947.603 485752.737 4.605
142947.02300000002 485754.554 17.196
142947.20500000002 485753.91000000003 13.332
142947.412 485753.181 8.957
142947.00400000002 485754.379 17.917
142947.105 485754.01900000003 15.756
142947.57200000001 485752.369 5.868
142947.51 485752.155 7.739
142947.077 485753.466 17.185
142947.51200000002 485751.925 7.989
142947.101 485753.131 17
142947.494 485751.737 8.69
142947.09100000001 485752.946 17.502
142947.196 485752.57300000003 15.282
142947.488 485751.534 9.092
142947.09900000002 485752.715 17.581
142947.199 485752.358 15.455
142947.363 485751.777 11.998000000000001
142947.497 485751.297 9.147
142947.187 485752.18200000003 16.012
142947.507 485751.038 9.219
142947.233 485751.766 15.344000000000001
142947.45500000002 485750.972 10.641
142947.467 485750.715 10.672
142947.194 485751.477 16.729
142947.48500000002 485750.435 10.573
142947.198 485751.254 16.905
142947.293 485750.91500000004 14.9
142947.418 485750.466 12.248000000000001
142947.299 485750.641 15.079
142947.647 485749.392 7.715
142947.652 485749.152 7.904
142947.661 485748.903 7.988
142947.669 485748.651 8.101
142947.679 485748.365 8.22
142947.687 485748.097 8.339
142947.102 485765.885 9.661
142947.385 485764.934 3.5700000000000003
142947.111 485765.64900000003 9.716000000000001
142947.138 485765.559 9.144
142947.146 485765.336 9.23
142947.182 485765.215 8.456
142947.193 485764.94 8.532
142947.352 485764.403 5.104
142947.354 485764.161 5.348
142947.283 485764.19200000004 7.163
142947.399 485763.798 4.6530000000000005
142947.41 485763.563 4.671
142947.46600000001 485762.67 4.384
142947.272 485763.129 8.787
142947.23500000002 485763.03500000003 9.851
142947.301 485762.579 8.732
142947.024 485763.29000000004 14.957
142947.141 485762.893 12.455
142947.015 485763.118 15.408
142947.17500000002 485762.57 11.966000000000001
142947.03 485762.829 15.387
142947.04200000002 485762.572 15.411
142947.593 485760.691 3.633
142947.209 485761.773 12.097
142947.354 485761.281 9.022
142947.067 485762.047 15.394
142947.394 485760.936 8.451
142946.975 485762.132 17.71
142947.052 485761.863 16.028
142947.151 485761.523 13.905000000000001
142947.01 485761.76900000003 17.274
142947.252 485760.933 12.066
142947.375 485760.27900000004 9.74
142947.019 485761.29600000003 17.627
142947.29 485760.36100000003 11.819
142947.354 485760.141 10.455
142947.784 485758.668 1.301
142947.22 485760.363 13.607000000000001
142947.435 485759.623 9.025
142947.66700000002 485758.832 4.119
142947.803 485758.363 1.205
142947.332 485759.754 11.508000000000001
142947.423 485759.44200000004 9.578
142947.603 485758.82300000003 5.744
142947.32 485759.579 12.045
142947.431 485759.19800000003 9.693
142947.088 485759.281 18.411
142947.088 485759.06 18.704
142947.314 485758.271 13.864
142947.093 485758.793 18.92
142947.058 485758.702 19.903
142947.602 485756.811 8.337
142947.095 485758.373 19.38
142947.183 485758.065 17.5
142947.199 485757.787 17.443
142947.448 485756.92100000003 12.157
142947.201 485757.547 17.673000000000002
142947.377 485756.939 13.967
142947.119 485757.607 19.726
142947.359 485756.77 14.634
142947.51200000002 485756.235 11.372
142947.41700000002 485756.351 13.671000000000001
142947.424 485756.103 13.805
142947.428 485755.846 14.041
142947.424 485755.629 14.41
142947.28 485755.923 17.717
142947.402 485755.495 15.128
142947.986 485753.447 2.757
142947.418 485755.20900000003 15.082
142947.489 485754.962 13.591000000000001
142947.829 485753.766 6.375
142947.502 485754.67600000004 13.597
142947.543 485754.534 12.74
142947.731 485753.87200000003 8.755
142947.944 485753.123 4.241
142947.499 485754.458 13.961
142947.738 485753.619 8.917
142947.92500000002 485752.95900000003 4.945
142948.019 485752.628 2.955
142947.93600000002 485752.507 5.244
142948.034 485752.159 3.154
142948.048 485751.851 3.197
142947.677 485752.936 11.323
142947.845 485752.346 7.793
142947.692 485752.686 11.248000000000001
142947.84100000001 485752.162 8.11
142947.524 485753.04600000003 15.107000000000001
142947.492 485752.931 16.080000000000002
142947.4 485753.028 18.318
142947.497 485752.686 16.28
142947.494 485752.493 16.588
142947.579 485752.193 14.801
142947.961 485750.83400000003 6.722
142947.489 485752.276 16.998
142947.96600000001 485750.579 6.924
142947.818 485750.84500000003 10.368
142947.976 485750.283 7.03
142947.979 485750.063 7.237
142947.77 485750.591 11.915000000000001
142947.837 485750.353 10.512
142947.937 485749.993 8.385
142947.782 485750.30700000003 11.985
142947.793 485750.018 12.076
142947.866 485749.755 10.535
142947.806 485749.766 12.040000000000001
142947.883 485749.492 10.434000000000001
142948.025 485748.333 8.256
142947.437 485766.411 6.807
142947.616 485765.617 3.22
142947.62900000002 485765.359 3.203
142947.632 485765.102 3.457
142947.638 485764.84 3.623
142947.442 485765.302 8.098
142947.646 485764.615 3.706
142947.653 485764.371 3.827
142947.267 485765.454 12.404
142947.245 485765.281 13.186
142947.449 485764.594 8.818
142947.29 485764.927 12.484
142947.552 485764.041 6.854
142947.679 485763.38 4.431
142947.548 485763.594 7.5120000000000005
142947.568 485763.309 7.3660000000000005
142947.7 485762.863 4.5440000000000005
142947.534 485763.19800000003 8.376
142947.711 485762.60000000003 4.598
142947.554 485762.9 8.257
142947.399 485763.177 11.917
142947.20500000002 485763.603 16.353
142947.215 485763.359 16.403
142947.80000000002 485761.368 3.8930000000000002
142947.809 485761.108 3.968
142947.287 485762.66500000004 15.423
142947.489 485761.753 11.347
142947.334 485762.081 14.93
142947.371 485761.729 14.414
142947.66 485760.745 8.271
142947.225 485761.978 17.907
142947.497 485761.042 12.074
142947.268 485761.60000000003 17.278
142947.712 485760.074 7.785
142947.223 485761.553 18.499
142947.28 485761.153 17.529
142947.391 485760.768 15.138
142947.46 485760.53 13.657
142947.914 485758.974 4.001
142948.051 485758.503 1.082
142947.47 485760.237 13.781
142947.594 485759.81 11.132
142948.074 485758.164 0.934
142947.884 485758.605 5.242
142947.34 485759.586 17.966
142947.342 485759.354 18.199
142947.362 485759.07800000004 18.05
142947.50400000002 485758.33900000004 15.322000000000001
142947.578 485758.085 13.76
142947.323 485758.74100000004 19.481
142947.396 485758.48600000003 17.924
142947.801 485757.079 9.313
142947.481 485757.976 16.396
142947.926 485756.425 6.9190000000000005
142947.472 485757.789 16.846
142947.711 485756.958 11.771
142947.964 485756.077 6.399
142947.664 485756.869 13.083
142947.663 485756.643 13.403
142947.76 485756.306 11.351
142948.195 485754.788 2.115
142947.603 485756.65 14.934000000000001
142947.761 485756.097 11.573
142947.606 485756.438 15.131
142947.76200000002 485755.89400000003 11.83
142948.164 485754.487 3.291
142947.609 485756.183 15.373000000000001
142947.768 485755.62700000004 12.005
142948.215 485754.06 2.508
142947.776 485755.356 12.15
142947.63700000002 485755.63800000004 15.337
142947.778 485755.145 12.361
142947.578 485755.623 16.876
142947.772 485754.944 12.778
142948.173 485753.532 4.2540000000000004
142947.774 485754.708 13.035
142948.017 485753.852 7.8790000000000004
142948.18 485753.276 4.402
142947.592 485755.113 17.153
142947.77 485754.487 13.381
142947.964 485753.806 9.290000000000001
142948.109 485753.29600000003 6.215
142948.181 485753.043 4.694
142947.777 485754.261 13.493
142948.189 485752.81 4.772
142947.88 485753.669 11.614
142948.073 485752.988 7.5280000000000005
142948.193 485752.563 4.976
142947.912 485753.302 11.244
142948.083 485752.702 7.6450000000000005
142947.923 485753.038 11.285
142948.119 485752.351 7.168
142948.19700000001 485752.076 5.518
142947.763 485753.384 14.97
142947.807 485753.229 14.043000000000001
142947.933 485752.782 11.371
142948.19700000001 485751.848 5.785
142947.778 485753.094 14.952
142948.198 485751.606 6.0680000000000005
142947.846 485752.612 13.834
142947.939 485752.27900000004 11.847
142948.20500000002 485751.33900000004 6.2490000000000006
142947.845 485752.407 14.121
142948.208 485751.11600000004 6.4350000000000005
142947.701 485752.717 17.426000000000002
142947.84900000002 485752.188 14.279
142948.208 485750.914 6.704
142947.713 485752.466 17.437
142947.834 485752.033 14.863
142947.853 485751.731 14.769
142947.935 485751.43700000003 13.024000000000001
142948.21 485750.457 7.213
142947.86000000002 485751.489 14.889000000000001
142947.945 485751.185 13.088000000000001
142948.021 485750.913 11.481
142948.032 485750.657 11.518
142947.867 485751.041 15.281
142948.028 485750.468 11.893
142948.191 485749.881 8.432
142947.842 485750.902 16.109
142947.87900000002 485750.771 15.332
142947.927 485750.596 14.303
142948.22 485749.54600000003 8.106
142948.09100000001 485749.60000000003 11.373000000000001
142948.07200000001 485749.186 12.369
142948.073 485748.97000000003 12.64
142947.595 485766.577 8.123
142947.655 485766.37700000004 6.832
142947.671 485766.104 6.763
142947.65 485765.488 8.076
142947.44700000001 485765.974 12.689
142947.47400000002 485765.65400000004 12.418000000000001
142947.654 485765.04600000003 8.546
142947.463 485765.43700000003 12.973
142947.63 485764.875 9.395
142947.683 485764.696 8.255
142947.524 485764.985 11.971
142947.69 485764.424 8.404
142947.846 485763.896 5.047
142947.886 485763.762 4.191
142947.518 485764.794 12.363
142947.877 485763.579 4.6450000000000005
142947.896 485763.297 4.524
142947.772 485763.47000000003 7.503
142947.79 485763.19800000003 7.390000000000001
142947.888 485762.864 5.2780000000000005
142947.465 485764.094 14.596
142947.808 485762.933 7.267
142947.894 485762.642 5.423
142947.924 485762.54000000004 4.7780000000000005
142947.777 485762.827 8.2
142947.443 485763.724 15.662
142947.79200000002 485762.536 8.178
142947.463 485763.41000000003 15.533
142947.62900000002 485762.83900000004 11.944
142947.805 485762.245 8.21
142947.42500000002 485763.325 16.641000000000002
142947.63700000002 485762.59500000003 12.05
142947.763 485762.169 9.381
142947.47 485762.954 15.946
142947.65 485762.335 12.058
142947.553 485762.444 14.439
142947.67500000002 485762.02400000003 11.807
142947.56100000002 485762.178 14.563
142947.728 485761.409 11.228
142947.81 485760.91000000003 9.756
142947.475 485761.822 17.279
142947.723 485760.962 11.918000000000001
142947.47400000002 485761.61 17.525000000000002
142947.752 485760.656 11.589
142947.464 485761.425 18.044
142947.614 485760.667 15.111
142947.691 485760.402 13.47
142947.82 485759.957 10.713000000000001
142948.139 485758.863 3.9250000000000003
142948.285 485758.362 0.8140000000000001
142948.298 485758.092 0.8260000000000001
142947.548 485760.44 17.098
142948.13700000002 485758.41500000004 4.57
142948.321 485757.781 0.643
142947.708 485758.977 14.867
142947.64 485758.995 16.584
142947.592 485758.946 17.883
142947.799 485758.228 13.477
142947.669 485758.455 16.525
142947.736 485758.224 15.105
142947.677 485758.197 16.642
142948.086 485756.77400000003 7.942
142947.548 485758.43 19.662
142947.701 485757.89900000003 16.418
142947.938 485757.075 11.378
142947.564 485758.161 19.607
142947.894 485757.009 12.576
142947.568 485757.895 19.828
142947.976 485756.471 11.152000000000001
142948.408 485754.963 1.969
142947.979 485756.253 11.368
142948.414 485754.733 2.121
142947.712 485756.738 17.596
142947.965 485755.854 12.23
142948.084 485755.435 9.692
142947.712 485756.494 17.902
142948.13 485755.031 9.036
142947.828 485755.863 15.708
142948.153 485754.724 8.821
142948.38 485753.928 4.003
142947.813 485755.702 16.317
142947.998 485755.053 12.392
142948.385 485753.694 4.182
142947.81 485755.47500000003 16.672
142948.391 485753.433 4.353
142947.819 485755.195 16.811
142947.97 485754.662 13.599
142948.284 485753.556 6.942
142947.98 485754.411 13.665000000000001
142948.287 485753.331 7.17
142947.972 485754.23600000003 14.081
142948.293 485753.108 7.308
142948.116 485753.509 11.345
142948.302 485752.852 7.399
142948.134 485753.218 11.227
142948.32 485752.561 7.288
142948.039 485753.143 13.754
142948.155 485752.732 11.301
142948.067 485752.806 13.458
142948.081 485752.52900000004 13.468
142948.31 485751.719 8.643
142947.903 485752.751 17.754
142948.066 485752.172 14.311
142947.922 485752.471 17.64
142948.164 485751.607 12.505
142948.414 485750.719 7.236
142948.059 485751.731 15.05
142948.236 485751.098 11.301
142948.372 485750.612 8.417
142948.058 485751.504 15.356
142948.136 485751.226 13.706
142948.069 485751.271 15.372
142948.268 485750.559 11.167
142948.392 485750.11600000004 8.542
142948.025 485751.221 16.576
142948.052 485750.901 16.279
142948.335 485749.652 10.61
142948.308 485749.548 11.443
142948.291 485749.37 12.087
142948.301 485749.107 12.18
142948.313 485748.64 12.472
142947.873 485766.79000000004 8.214
142947.878 485766.541 8.402000000000001
142947.932 485766.36 7.2410000000000005
142947.718 485765.957 13.251
142947.911 485765.31 9.125
142947.934 485765.233 8.634
142947.727 485765.705 13.363
142947.71600000001 485765.516 13.873000000000001
142947.785 485765.28500000003 12.405000000000001
142948.189 485763.922 3.722
142947.685 485765.393 14.862
142947.79200000002 485765.02900000004 12.546
142947.994 485764.35000000003 8.227
142947.813 485764.734 12.38
142948.01 485764.068 8.155
142948.081 485763.82800000004 6.632000000000001
142947.736 485764.76 14.312000000000001
142948.09 485763.565 6.734
142948.199 485762.963 4.694
142947.767 485764.204 14.199
142947.78 485763.95 14.19
142948.21600000001 485762.474 4.871
142948.084 485762.704 7.982
142948.107 485762.391 7.7700000000000005
142948.30000000002 485761.739 3.6630000000000003
142947.775 485763.291 15.18
142948.13700000002 485762.058 7.433
142947.765 485763.12200000003 15.653
142947.918 485762.597 12.356
142948.043 485762.173 9.696
142948.144 485761.829 7.533
142947.752 485762.93 16.241
142947.81 485762.731 14.994
142947.969 485761.938 11.872
142948.17500000002 485761.24 7.505
142947.867 485762.071 14.337
142948.07200000001 485761.158 10.218
142948.038 485761.037 11.25
142948.038 485760.792 11.562
142948.182 485760.29600000003 8.485
142948.21 485760.201 7.892
142947.814 485761.343 16.617
142947.823 485761.098 16.714
142947.963 485760.61600000004 13.724
142948.098 485760.152 10.85
142948.213 485759.756 8.384
142948.446 485758.96 3.4410000000000003
142947.77300000002 485761.034 18.089
142947.991 485760.281 13.422
142948.612 485757.923 0.491
142948.631 485757.64 0.376
142948.706 485757.381 -1.224
142948.713 485757.13800000004 -1.092
142947.98500000002 485759.19200000004 14.973
142948.1 485758.36100000003 13.078
142948.351 485757.244 8.041
142948.043 485758.097 14.870000000000001
142947.82200000001 485758.177 20.449
142947.94700000001 485757.74100000004 17.784
142948.696 485755.131 1.873
142947.853 485757.82800000004 20.106
142948.634 485755.101 3.505
142947.94700000001 485757.266 18.375
142947.992 485757.109 17.418
142948.643 485754.836 3.597
142947.93 485757.11100000003 19.016000000000002
142948.416 485755.41500000004 8.717
142948.653 485754.585 3.677
142947.922 485756.91500000004 19.455000000000002
142948.373 485755.33900000004 9.906
142948.426 485755.15400000004 8.781
142948.662 485754.327 3.767
142948.208 485755.694 13.69
142948.399 485755.025 9.64
142948.66700000002 485754.086 3.9490000000000003
142947.96600000001 485756.33900000004 19.073
142948.558 485754.266 6.531
142948.61800000002 485754.054 5.2540000000000004
142948.277 485755.042 12.758000000000001
142948.319 485754.893 11.855
142948.563 485754.036 6.684
142948.566 485753.80700000003 6.890000000000001
142948.673 485753.185 4.933
142948.391 485753.971 11.200000000000001
142948.396 485753.756 11.33
142948.41 485753.482 11.311
142948.351 485753.467 12.837
142948.42500000002 485753.205 11.274000000000001
142948.332 485753.298 13.544
142948.157 485753.7 17.513
142948.336 485753.068 13.736
142948.426 485752.748 11.821
142948.613 485752.087 7.875
142948.343 485752.833 13.846
142948.433 485752.51300000004 11.934000000000001
142948.622 485751.84500000003 7.9510000000000005
142948.22 485753.04000000004 16.743000000000002
142948.336 485752.629 14.288
142948.441 485752.255 12.059000000000001
142948.624 485751.61 8.218
142948.252 485752.705 16.353
142948.517 485751.762 10.744
142948.645 485751.311 8.052
142948.476 485751.701 11.884
142948.519 485751.547 10.973
142948.659 485751.045 7.99
142948.479 485751.46400000004 12.082
142948.676 485750.76300000004 7.924
142948.473 485751.251 12.528
142948.645 485750.636 8.882
142948.427 485751.191 13.774000000000001
142948.672 485750.318 8.608
142948.302 485751.436 16.675
142948.673 485750.11 8.833
142948.336 485751.096 16.255
142948.405 485750.846 14.780000000000001
142948.608 485750.121 10.501
142948.477 485750.33900000004 13.584
142948.612 485749.856 10.738
142948.61000000002 485749.625 11.075000000000001
142948.702 485749.297 9.138
142948.615 485749.397 11.229000000000001
142948.695 485749.109 9.535
142948.691 485748.91000000003 9.908
142948.59900000002 485748.783 12.438
142948.214 485767.55100000004 8.162
142948.227 485767.30700000003 8.117
142948.278 485766.454 7.902
142948.294 485766.188 7.821
142948.074 485766.69200000004 12.835
142948.088 485766.406 12.84
142948.059 485766.265 13.77
142948.03 485765.949 14.923
142948.163 485765.501 12.061
142948.056 485765.617 14.684000000000001
142948.132 485765.358 13.029
142948.302 485764.787 9.4
142948.076 485765.332 14.530000000000001
142948.048 485765.226 15.35
142948.14 485764.918 13.395
142948.058 485764.955 15.441
142948.407 485763.777 7.974
142948.097 485764.607 14.892
142948.424 485763.501 7.889
142948.589 485762.946 4.37
142948.115 485764.299 14.805
142948.594 485762.679 4.562
142948.496 485762.798 6.922
142948.55000000002 485762.397 6.045
142948.142 485763.533 15.068
142948.604 485761.97000000003 5.228
142948.184 485763.155 14.484
142948.616 485761.689 5.268
142948.202 485762.875 14.370000000000001
142948.513 485761.819 7.737
142948.21600000001 485762.613 14.357000000000001
142948.342 485761.936 11.963000000000001
142948.265 485761.965 13.889000000000001
142948.271 485761.749 14.012
142948.394 485761.33 11.395
142948.613 485760.368 7.03
142948.207 485761.499 15.973
142948.628 485760.063 7.033
142948.448 485760.445 11.139
142948.077 485761.52 19.34
142948.365 485760.52400000003 13.155000000000001
142948.136 485761.08400000003 18.352
142948.30000000002 485760.516 14.832
142948.502 485759.824 10.543000000000001
142948.13 485760.881 18.759
142948.468 485759.717 11.551
142949.021 485757.821 -0.191
142948.65600000002 485758.831 7.854
142948.995 485757.667 0.649
142948.628 485758.729 8.688
142948.66700000002 485758.596 7.868
142948.968 485757.563 1.484
142948.245 485759.818 17.122
142948.986 485757.26900000003 1.401
142948.513 485758.413 12.047
142948.482 485758.304 12.988
142948.97 485756.61600000004 2.621
142948.451 485758.167 13.957
142948.655 485757.458 9.616
142948.651 485757.233 9.997
142948.982 485756.085 2.971
142948.99 485755.84 3.086
142948.998 485755.61600000004 3.173
142948.265 485757.944 18.978
142948.771 485756.186 8.254
142948.23 485757.842 20.039
142948.431 485757.13800000004 15.754
142948.775 485755.94 8.461
142948.904 485755.493 5.737
142948.221 485757.661 20.474
142948.435 485756.917 15.946
142948.913 485755.251 5.817
142948.268 485757.286 19.776
142948.916 485755.02 6.013
142948.507 485756.234 14.969000000000001
142948.919 485754.792 6.228
142948.316 485756.669 19.29
142948.934 485754.509 6.21
142948.329 485756.408 19.29
142948.962 485754.193 5.892
142948.748 485754.74700000003 10.676
142948.745 485754.528 11.037
142948.873 485754.08 8.334
142948.739 485754.304 11.475
142948.567 485754.689 15.362
142948.736 485754.10000000003 11.819
142948.584 485754.43 15.277000000000001
142948.725 485753.93 12.27
142948.702 485753.79600000003 13.039
142948.534 485754.153 16.903
142948.769 485753.325 11.934000000000001
142948.549 485753.885 16.86
142948.653 485753.293 14.929
142948.777 485752.645 12.573
142948.86800000002 485752.324 10.658
142948.65600000002 485752.84500000003 15.429
142948.779 485752.408 12.821
142948.718 485752.391 14.432
142948.78 485752.17 13.119
142948.61000000002 485752.55700000003 16.977
142948.71600000001 485752.18 14.734
142948.784 485751.939 13.3
142948.613 485752.319 17.214
142948.787 485751.699 13.533
142948.785 485751.455 13.888
142948.953 485750.856 10.341000000000001
142948.779 485751.268 14.281
142948.965 485750.603 10.348
142948.777 485751.065 14.577
142948.975 485750.36100000003 10.42
142949.053 485750.081 8.76
142948.78 485750.842 14.807
142948.809 485750.50800000003 14.478
142948.954 485749.988 11.421
142948.772 485750.42600000004 15.543000000000001
142948.95500000002 485749.77 11.681000000000001
142948.938 485749.61 12.326
142949.041 485748.772 10.744
142949.05000000002 485748.509 10.84
142949.049 485748.324 11.096
142948.526 485766.441 8.19
142948.541 485766.18700000003 8.135
142948.315 485766.708 13.26
142948.31 485766.27 13.96
142948.606 485765.276 7.607
142948.407 485765.724 12.139000000000001
142948.284 485765.918 15.094000000000001
142948.441 485765.386 11.700000000000001
142948.301 485765.615 15.039
142948.476 485765.02400000003 11.273
142948.355 485765.199 14.155000000000001
142948.46600000001 485764.824 11.772
142948.304 485765.151 15.511000000000001
142948.702 485763.809 6.992
142948.27300000002 485765.039 16.449
142948.317 485764.646 15.821
142948.43 485764.266 13.417
142948.69 485763.385 7.841
142948.867 485762.56200000003 4.3500000000000005
142948.403 485763.919 14.52
142948.55000000002 485763.425 11.402000000000001
142948.563 485763.381 11.128
142948.691 485762.248 9.258000000000001
142948.746 485761.856 8.339
142948.888 485761.374 5.311
142948.348 485762.968 17.159
142948.426 485762.69800000003 15.471
142948.904 485761.075 5.299
142948.332 485762.80700000003 17.783
142948.517 485762.17 13.792
142948.538 485761.876 13.641
142948.799 485760.98600000003 8.081
142948.547 485761.641 13.702
142948.821 485760.706 7.87
142948.548 485761.391 13.977
142948.844 485760.384 7.7090000000000005
142948.423 485761.58 16.990000000000002
142948.488 485761.351 15.566
142948.785 485760.337 9.259
142949.032 485759.493 4.006
142949.054 485759.185 3.8360000000000003
142948.416 485761.156 17.701
142948.565 485760.64 14.499
142948.751 485760.00200000004 10.539
142948.958 485759.295 6.1530000000000005
142949.078 485758.887 3.615
142948.57 485760.38 14.712
142948.988 485758.944 5.814
142949.105 485758.544 3.339
142948.486 485760.429 16.788
142948.927 485758.914 7.416
142948.938 485758.875 7.173
142949.022 485758.587 5.389
142949.135 485758.205 3.024
142949.164 485757.898 2.656
142948.881 485758.656 8.909
142949.166 485757.681 2.892
142949.165 485757.457 3.189
142949.21600000001 485757.055 2.384
142948.748 485758.458 12.58
142949.221 485756.824 2.537
142948.514 485759.05 17.823
142948.734 485758.289 13.15
142948.943 485757.566 8.714
142949.303 485756.326 1.097
142948.935 485757.368 9.163
142949.011 485756.884 7.853
142949.029 485756.617 7.7250000000000005
142949.033 485756.398 7.888
142949.034 485756.155 8.163
142948.482 485757.829 20.214000000000002
142949.034 485755.90400000004 8.494
142949.166 485755.443 5.687
142948.543 485757.409 19.136
142949.03 485755.715 8.839
142948.585 485757.061 18.501
142949.022 485755.54000000004 9.27
142949.019 485755.331 9.596
142948.816 485755.791 14.219
142949.015 485755.096 10.019
142948.821 485755.566 14.389000000000001
142949.011 485754.898 10.355
142949 485754.719 10.859
142949.00400000002 485754.49 11.057
142948.957 485754.424 12.338000000000001
142949.051 485753.864 10.65
142949.082 485753.531 10.281
142948.98500000002 485753.63300000003 12.614
142949.086 485753.278 10.487
142948.987 485753.381 12.871
142948.84100000001 485753.688 16.228
142948.905 485753.248 15.157
142949.09900000002 485752.55700000003 11.037
142949.102 485752.325 11.27
142948.813 485753.12700000004 17.659
142948.893 485752.843 15.964
142949.025 485752.378 13.189
142949.107 485752.083 11.437
142949.189 485751.795 9.72
142948.815 485752.912 17.88
142948.826 485752.65 17.923000000000002
142948.949 485752.215 15.336
142949.051 485751.854 13.188
142949.196 485751.336 10.114
142948.899 485752.155 16.684
142949.102 485751.435 12.408
142949.211 485751.047 10.11
142948.909 485751.878 16.79
142948.978 485751.63 15.321
142949.115 485751.145 12.444
142949.214 485750.791 10.353
142948.987 485751.393 15.415000000000001
142949.122 485750.908 12.546
142949.076 485750.878 13.768
142949.017 485750.853 15.315
142949.201 485749.965 11.728
142949.36800000002 485749.369 8.211
142949.036 485750.342 15.487
142949.208 485749.72500000003 11.857000000000001
142949.193 485749.563 12.443
142949.253 485749.13800000004 11.441
142949.225 485748.99 12.356
142949.275 485748.586 11.583
142948.734 485766.001 7.949
142948.736 485765.74700000003 8.216
142948.75 485765.488 8.179
142948.791 485765.35000000003 7.299
142948.551 485765.929 12.726
142948.772 485765.189 7.996
142948.569 485765.646 12.639000000000001
142948.82200000001 485764.795 7.212
142948.472 485765.75 15.016
142948.734 485764.865 9.38
142948.837 485764.517 7.167
142948.65600000002 485764.902 11.329
142948.84900000002 485764.25200000004 7.2010000000000005
142948.492 485765.238 15.129
142948.673 485764.62700000004 11.244
142948.464 485765.092 16.017
142948.884 485763.675 7.03
142948.477 485764.81700000004 16.031
142948.614 485764.355 13.101
142949.028 485762.95300000004 4.226
142948.50400000002 485764.494 15.745000000000001
142948.878 485763.23 7.7490000000000006
142948.757 485763.43700000003 10.607000000000001
142948.894 485762.971 7.663
142948.732 485763.291 11.44
142948.844 485762.906 9.017
142948.888 485762.538 8.349
142948.902 485762.239 8.381
142948.913 485761.989 8.407
142948.517 485763.103 17.197
142948.65 485762.646 14.328000000000001
142948.929 485761.695 8.369
142948.608 485762.54600000003 15.545
142948.683 485762.288 13.929
142948.94 485761.412 8.448
142949.085 485760.918 5.354
142948.508 485762.658 17.981
142948.717 485761.939 13.487
142948.727 485761.689 13.554
142948.549 485762.094 17.659
142948.74 485761.434 13.541
142948.924 485760.80100000004 9.601
142949.162 485759.993 4.554
142948.669 485761.445 15.343
142948.757 485761.146 13.477
142948.865 485760.773 11.159
142949.187 485759.674 4.317
142948.61800000002 485761.396 16.711000000000002
142948.882 485760.49 11.077
142949.217 485759.346 3.964
142948.915 485760.18200000003 10.638
142949.24300000002 485759.059 3.66
142948.747 485760.547 14.47
142948.942 485759.88 10.335
142949.268 485758.764 3.4090000000000003
142949.179 485758.816 5.58
142949.29200000002 485758.433 3.205
142949.208 485758.492 5.256
142949.321 485758.108 2.875
142949.428 485757.739 0.594
142948.685 485760.099 16.649
142949.228 485758.226 5.077
142949.334 485757.865 2.845
142948.70500000002 485759.822 16.497
142949.319 485757.70300000004 3.423
142949.29 485757.575 4.308
142948.944 485758.528 12
142949.223 485757.561 6.051
142949.308 485757.268 4.253
142948.698 485759.163 17.511
142948.932 485758.35000000003 12.514000000000001
142949.131 485757.45300000004 8.564
142949.206 485756.966 7.242
142948.714 485758.452 17.996
142949.21 485756.727 7.441
142949.215 485756.492 7.615
142949.302 485756.19200000004 5.777
142949.21600000001 485756.273 7.88
142949.299 485755.983 6.111
142949.214 485756.042 8.227
142949.298 485755.749 6.439
142949.211 485755.827 8.571
142949.298 485755.522 6.713
142949.295 485755.33 7.04
142948.986 485756.189 13.896
142948.982 485755.958 14.289
142949.204 485755.179 9.575000000000001
142949.088 485755.12700000004 12.63
142949.154 485754.892 11.216000000000001
142948.888 485755.614 17.099
142948.891 485755.139 17.636
142949.22400000002 485753.772 10.841000000000001
142949.233 485753.533 10.927
142949.056 485753.91000000003 14.957
142949.189 485753.44 12.142
142949.241 485753.256 11.043000000000001
142949.07 485753.62200000003 14.954
142949.154 485753.327 13.187
142949.005 485753.63 16.616
142949.155 485753.102 13.454
142949.271 485752.688 10.987
142948.987 485753.494 17.261
142949.277 485752.466 11.126
142949.351 485752.20300000004 9.556000000000001
142949.03 485753.104 16.642
142949.363 485751.924 9.606
142949.352 485751.732 10.129
142949.399 485751.563 9.122
142949.029 485752.68 17.228
142948.997 485752.583 18.154
142949.064 485752.34500000003 16.736
142949.151 485751.792 15.208
142949.28 485751.333 12.484
142949.384 485750.963 10.293000000000001
142949.165 485751.52 15.196
142949.28 485751.11100000003 12.772
142949.393 485750.705 10.371
142949.482 485750.39 8.504
142949.279 485750.896 13.052
142949.285 485750.656 13.227
142949.505 485749.865 8.561
142949.19700000001 485750.74100000004 15.375
142949.256 485750.52900000004 14.127
142949.212 485750.449 15.348
142949.377 485749.634 12.141
142949.43 485748.992 11.609
142949.416 485748.805 12.194
142948.895 485768.066 7.44
142948.908 485767.783 7.464
142948.92 485767.49100000004 7.545
142948.932 485767.25800000003 7.516
142948.943 485766.99100000004 7.59
142948.981 485766.609 7.088
142948.99 485766.359 7.171
142948.989 485766.158 7.453
142949.002 485765.884 7.489
142949.059 485765.224 6.838
142949 485765.204 8.382
142948.825 485765.583 12.413
142949.014 485764.945 8.349
142948.677 485765.83 15.921000000000001
142948.679 485765.602 16.127
142948.676 485765.38800000004 16.477
142948.878 485764.706 12.144
142948.935 485764.517 10.94
142948.67 485765.184 16.885
142948.859 485764.547 12.849
142948.848 485764.324 13.409
142948.889 485764.188 12.543000000000001
142949.15 485763.3 6.926
142948.827 485764.161 14.135
142949.168 485763.00800000003 6.8500000000000005
142948.965 485763.48600000003 11.463000000000001
142949.178 485762.761 6.888
142949.113 485762.744 8.598
142949.166 485762.56200000003 7.455
142949.11800000002 485762.494 8.785
142949.078 485762.418 9.902000000000001
142949.135 485762.22500000003 8.684000000000001
142949.095 485762.157 9.797
142949.15 485761.971 8.633000000000001
142948.74 485763.14400000003 17.68
142949.113 485761.871 9.702
142949.165 485761.694 8.589
142948.78100000002 485762.789 17.086000000000002
142949.315 485760.965 5.6690000000000005
142948.715 485762.77400000003 18.783
142949.347 485760.61600000004 5.285
142948.729 485762.532 18.739
142948.787 485762.336 17.511
142949.371 485760.33400000003 5.011
142948.722 485762.34 19.163
142949.00400000002 485761.369 13.099
142949.401 485760.015 4.665
142948.791 485761.882 17.979
142948.92500000002 485761.416 15.074
142949.018 485761.099 13.101
142948.812 485761.582 17.786
142949.045 485760.781 12.799
142948.756 485761.571 19.282
142949.159 485760.179 10.639
142948.749 485761.358 19.727
142949.195 485759.81700000004 10.177
142948.856 485760.75800000003 17.723
142949.59100000001 485758.00200000004 2.343
142949.484 485758.167 4.839
142949.598 485757.778 2.434
142949.407 485758.20900000003 6.772
142949.51 485757.855 4.591
142948.915 485759.678 17.542
142949.43600000002 485757.87700000004 6.448
142948.91 485759.458 17.948
142949.199 485758.457 11.790000000000001
142949.395 485757.782 7.638
142949.448 485757.598 6.508
142948.95500000002 485759.109 17.247
142949.392 485757.592 7.933
142949.396 485757.368 8.114
142949.452 485757.17600000004 6.938
142949.682 485756.37700000004 2.033
142948.902 485758.835 18.972
142949.428 485757.006 7.768
142949.541 485756.614 5.365
142948.86800000002 485758.71400000004 19.974
142949.541 485756.375 5.667
142948.91 485758.358 19.341
142949.541 485756.16500000004 5.939
142949.541 485755.931 6.222
142949.541 485755.701 6.5280000000000005
142949.541 485755.455 6.8420000000000005
142949.244 485756.29600000003 13.386000000000001
142949.54200000002 485755.255 7.066
142949.246 485756.071 13.611
142949.424 485755.449 9.839
142949.544 485755.03 7.297
142949.444 485755.147 9.701
142949.549 485754.782 7.492
142949.219 485755.70300000004 14.756
142949.554 485754.531 7.668
142949.554 485754.308 7.957
142949.557 485754.072 8.176
142949.141 485755.302 17.271
142949.564 485753.81700000004 8.324
142949.566 485753.592 8.551
142949.573 485753.352 8.687
142949.578 485753.117 8.856
142949.293 485753.891 15.165000000000001
142949.411 485753.473 12.657
142949.483 485753.217 11.128
142949.581 485752.875 9.083
142949.496 485752.943 11.161
142949.586 485752.628 9.276
142949.232 485753.677 17.013
142949.388 485753.123 13.698
142949.233 485753.455 17.248
142949.382 485752.927 14.092
142949.382 485752.678 14.421000000000001
142949.553 485752.068 10.789
142949.389 485752.43 14.553
142949.264 485752.658 17.465
142949.671 485751.21 8.855
142949.286 485752.353 17.306
142949.287 485752.097 17.584
142949.528 485751.24 12.498000000000001
142949.509 485750.637 13.736
142949.505 485750.431 14.114
142949.451 485750.409 15.526
142949.55000000002 485750.054 13.437000000000001
142949.574 485749.753 13.205
142949.66700000002 485748.95900000003 11.828
142949.672 485748.711 12.005
142949.274 485767.403 7.538
142949.286 485767.16500000004 7.533
142949.345 485766.503 6.862
142949.332 485766.31200000003 7.425
142949.384 485765.935 6.582
142949.085 485765.753 14.485
142949.378 485764.767 8.199
142949.087 485765.503 14.762
142949.394 485764.466 8.171
142949.23500000002 485764.799 11.839
142949.30000000002 485764.373 10.695
142949.328 485764.056 10.395
142949.2 485764.262 13.4
142949.289 485763.963 11.508000000000001
142949.34 485763.788 10.41
142949.302 485763.71 11.51
142949.353 485763.537 10.418000000000001
142949.43 485763.272 8.746
142949.19700000001 485763.842 13.992
142949.316 485763.443 11.473
142949.489 485762.629 8.048
142949.369 485762.58900000004 11.143
142949.56 485761.944 7.093
142949.319 485762.563 12.467
142949.467 485762.063 9.332
142949.609 485761.581 6.306
142949.633 485761.501 5.799
142949.653 485761.185 5.683
142949.421 485761.724 10.917
142949.664 485760.9 5.753
142949.088 485762.664 18.316
142949.177 485762.358 16.406
142949.429 485761.495 11.003
142949.195 485762.093 16.272000000000002
142949.725 485760.065 5.255
142949.112 485761.912 18.654
142949.489 485760.613 10.571
142949.668 485760.006 6.789
142949.125 485761.66500000004 18.627
142949.356 485760.867 13.662
142949.457 485760.299 11.81
142949.54200000002 485759.786 10.262
142949.592 485759.382 9.486
142949.22 485760.434 17.714
142949.65600000002 485758.933 8.435
142949.141 485760.493 19.683
142949.713 485758.52 7.502
142949.146 485760.237 19.869
142949.747 485758.163 7.08
142949.569 485758.52900000004 11.16
142949.718 485758.017 8.005
142949.878 485757.463 4.598
142949.323 485759.172 16.668
142949.737 485757.74100000004 7.871
142949.20500000002 485759.368 19.473
142949.547 485758.181 12.184000000000001
142949.73500000002 485757.528 8.177
142949.218 485759.10000000003 19.475
142949.30000000002 485758.583 18.004
142950.041 485755.798 2.52
142949.287 485758.204 18.773
142949.36800000002 485757.69 17.381
142949.595 485756.64900000003 12.882
142949.598 485755.995 13.627
142949.614 485755.711 13.594
142949.392 485756.266 18.535
142949.499 485755.468 16.812
142949.901 485754.061 8.325
142949.469 485755.31700000004 17.776
142949.905 485753.786 8.559000000000001
142949.83000000002 485753.625 10.700000000000001
142949.91 485753.343 9.002
142949.924 485753.063 9.004
142949.932 485752.777 9.167
142949.836 485752.889 11.464
142949.709 485753.142 14.383000000000001
142949.728 485752.831 14.292
142949.722 485752.602 14.738
142949.71600000001 485752.427 15.1
142949.72400000002 485752.199 15.199
142949.888 485751.615 11.735
142949.729 485751.938 15.402000000000001
142950.014 485750.922 9.378
142949.726 485751.706 15.781
142949.815 485751.386 13.883000000000001
142950.032 485750.614 9.313
142949.82200000001 485751.153 14.004
142950.043 485750.36600000004 9.348
142950.319 485748.686 4.3950000000000005
142950.334 485748.43700000003 4.328
142949.522 485767.533 7.44
142949.598 485766.57300000003 6.698
142949.569 485766.452 7.609
142949.642 485766.207 6.034
142949.654 485765.968 6.021
142949.636 485765.81 6.694
142949.64 485765.57 6.888
142949.649 485765.321 6.972
142949.658 485765.07300000003 7.064
142949.662 485764.397 7.828
142949.426 485764.98600000003 13.123000000000001
142949.665 485764.181 8.01
142949.642 485764.027 8.804
142949.562 485764.05700000003 10.813
142949.57 485763.806 10.931000000000001
142949.621 485763.631 9.829
142949.668 485763.273 9.062
142949.702 485762.946 8.598
142949.51200000002 485763.121 13.261000000000001
142949.726 485762.393 8.686
142949.839 485762.012 6.284
142949.721 485762.186 9.083
142949.86000000002 485761.715 6.122
142949.611 485762.354 11.671
142949.631 485762.054 11.539
142949.844 485761.33 7.003
142949.651 485761.75200000004 11.387
142949.682 485761.424 11.027000000000001
142949.632 485761.363 12.387
142949.632 485761.115 12.681000000000001
142949.614 485760.962 13.353
142949.632 485760.68200000003 13.236
142949.426 485761.18200000003 17.908
142949.596 485760.59500000003 14.267
142949.825 485759.809 9.392
142949.449 485760.87200000003 17.708000000000002
142950.168 485758.184 2.684
142949.39 485760.636 19.522000000000002
142949.568 485760.023 15.732000000000001
142949.952 485758.7 7.557
142949.726 485759.246 12.646
142949.403 485760.12700000004 19.846
142949.739 485758.963 12.671000000000001
142949.439 485759.778 19.35
142949.581 485759.28500000003 16.316
142950.124 485757.408 4.767
142949.997 485757.653 7.734
142950.207 485756.925 3.259
142949.56 485758.93200000003 17.303
142949.96 485757.548 8.812
142949.932 485757.42100000003 9.689
142949.799 485757.658 12.796000000000001
142950.28100000002 485755.987 2.567
142950.286 485755.75 2.735
142949.856 485757.04000000004 12.111
142950.289 485755.536 2.931
142949.628 485757.576 17.287
142949.835 485756.856 12.898
142949.62900000002 485756.908 18.081
142949.665 485756.3 17.913
142949.753 485755.993 16.056
142949.676 485756.068 17.936
142949.756 485755.79000000004 16.251
142949.684 485755.809 18.046
142950.145 485754.197 8.313
142950.145 485753.729 8.919
142950.159 485753.473 8.86
142950.18 485752.49 9.568
