142910.56099987 485821.06699944 8.83600044
142909.47000027 485821.59799957 12.90100002
142909.58300018 485821.43400002 13.38399982
142909.81400013 485821.21699905 13.42300034
142910.19499969 485821.00099945 12.26700020
142908.38500023 485821.93499947 18.52300072
142909.43099976 485821.34399986 15.35200024
142910.11200047 485820.95800018 13.28400040
142912.52400017 485819.50399971 6.70400000
142913.14000034 485819.15399933 4.83900023
142909.98200035 485820.84799957 15.22299957
142910.19400024 485820.72800064 14.58699989
142911.06499958 485820.23399925 11.95400047
142910.84200001 485820.26899910 13.40299988
142912.38099957 485819.39200020 8.75800037
142910.64900017 485820.28899956 14.74400043
142911.11800003 485820.02099991 13.32999992
142912.00500011 485819.51499939 10.65499973
142910.78100014 485820.12199974 15.13300037
142911.76200008 485819.56100082 12.17700005
142911.34099960 485819.71199989 14.21399975
142911.69400024 485819.50900078 13.15400028
142911.92800045 485819.37599945 12.44999981
142911.18200016 485819.71699905 15.41300011
142911.62800026 485819.46299934 14.07699966
142912.77900028 485818.80400085 10.62699986
142911.30599976 485819.55800056 15.78800011
142912.35999966 485818.95400047 12.63300037
142912.63099957 485818.79999924 11.81999969
142911.24800014 485819.50099945 16.73100090
142911.80399990 485819.18099976 15.06900024
142912.55799961 485818.75000000 12.81900024
142911.70800018 485819.14100075 16.17300034
142912.79800034 485818.51499939 12.92300034
142913.23999977 485818.26099968 11.60700035
142913.44299984 485818.14500046 11.00199986
142912.90999985 485818.36599922 13.31099987
142913.22900009 485818.00099945 13.89500046
142913.31900024 485817.86000061 14.38500023
142913.58199978 485817.70899963 13.60900021
142905.61499977 485825.82900047 4.37300014
142906.82399988 485825.06399918 1.37699997
142904.53000021 485826.21999931 9.53699970
142904.72499990 485826.01899910 9.71300030
142905.01900005 485825.86000061 8.77799988
142905.89099979 485825.37999916 6.00400019
142904.90100002 485825.82600021 9.96899986
142905.25600004 485825.63400078 8.84799957
142905.58199978 485825.45299911 7.80900002
142904.18699980 485826.12500000 13.03199959
142904.74399996 485825.81999969 11.26799965
142905.27699995 485825.52499962 9.57400036
142904.85900021 485825.66699982 11.65200043
142905.73500013 485825.18499947 8.88099957
142906.76000023 485824.52300072 6.45400000
142907.11999989 485824.22999954 6.13299990
142908.43500042 485823.50399971 1.99100006
142905.59299994 485824.96999931 11.80500031
142905.04600000 485825.18600082 14.27099991
142906.13600016 485824.58200073 10.84799957
142906.33799982 485824.46999931 10.21199989
142905.73899984 485824.70199966 12.93400002
142906.81199980 485824.10799980 9.57100010
142907.07900000 485823.95899963 8.73099995
142905.83900023 485824.55699921 13.37199974
142906.08300018 485824.42300034 12.60799980
142906.49700022 485824.19300079 11.31299973
142906.97100019 485823.93000031 9.83100033
142909.20300007 485822.50600052 4.42000008
142908.03699970 485823.05500031 8.88899994
142906.79600000 485823.65099907 13.55399990
142907.40500021 485823.31200027 11.66199970
142907.65799999 485823.07799911 11.65900040
142911.62199974 485820.76700020 0.20700000
142909.14099979 485822.05999947 8.67199993
142909.15699959 485821.96500015 9.35599995
142907.25600004 485822.93799973 15.98999977
142907.54199982 485822.68300056 15.89200020
142907.98299980 485822.33799934 15.36499977
142908.66300011 485821.95599937 13.28400040
142908.83800030 485821.77099991 13.48200035
142910.29899979 485820.94899940 9.02099991
142908.86200047 485821.65999985 14.23499966
142909.27900028 485821.33699989 13.70199966
142909.68400002 485821.02000046 13.22599983
142909.10999966 485821.25699997 15.71199989
142909.27999973 485821.15900040 15.19299984
142909.87800026 485820.82200050 13.37899971
142911.99699974 485819.52499962 7.78200006
142910.05799961 485820.53100014 14.43500042
142910.35400009 485820.36300087 13.53999996
142910.72200012 485820.15399933 12.43000031
142909.82299995 485820.57399940 15.89999962
142910.98900032 485819.91200066 12.38799953
142911.29699993 485819.73800087 11.45600033
142909.76099968 485820.51700020 16.86599922
142911.26900005 485819.65999985 12.32299995
142911.52900028 485819.42000008 12.31599998
142912.03499985 485819.13199997 10.79800034
142911.17599964 485819.53800011 14.09000015
142912.61900043 485818.71400070 9.75599957
142911.15200043 485819.46199989 14.92399979
142911.86999989 485819.05200005 12.77000046
142912.47299957 485818.70700073 10.96300030
142912.82600021 485818.50600052 9.90600014
142911.64599991 485819.08799934 14.22500038
142912.55500031 485818.56699944 11.50800037
142912.49699974 485818.50399971 12.49199963
142913.05500031 485818.18499947 10.82800007
142911.88899994 485818.76600075 15.03899956
142913.13500023 485818.05200005 11.32800007
142912.04699993 485818.58200073 15.36600018
142912.37100029 485818.39699936 14.40200043
142913.12899971 485817.96100044 12.14799976
142913.47099972 485817.76399994 11.13199997
142912.85700035 485818.03100014 13.68999958
142913.56999969 485817.62000084 11.56799984
142913.36800003 485817.64900017 12.92399979
142905.20100021 485825.79299927 4.27199984
142905.27400017 485825.64800072 4.91900015
142905.05999994 485825.47200012 8.07699966
142905.03900003 485825.38999939 8.94799995
142905.56599998 485825.10000038 7.27400017
142904.37099981 485825.66799927 11.81599998
142904.98199987 485825.33200073 9.87800026
142905.22900009 485825.19499969 9.09200001
142905.63500023 485824.97299957 7.81300020
142905.02199984 485825.21500015 10.53899956
142905.71500015 485824.73800087 9.17199993
142906.51000023 485824.29899979 6.66200018
142907.79899979 485823.58699989 2.59599996
142905.20800018 485824.91600037 11.62399960
142904.66900015 485825.12400055 14.08399963
142905.29899979 485824.77599907 12.10200024
142905.28599977 485824.68300056 12.98700047
142905.93699980 485824.32299995 10.94600010
142906.40000010 485824.06699944 9.48999977
142906.98999977 485823.73999977 7.63800001
142905.34600019 485824.56200027 13.53800011
142905.45499992 485824.50200081 13.19400024
142905.63000011 485824.31200027 13.43000031
142906.25899982 485823.96299934 11.46399975
142906.52400017 485823.81699944 10.63599968
142907.17600012 485823.45400047 8.59799957
142905.66900015 485824.20400047 14.05200005
142908.47999954 485822.53899956 6.15100002
142906.40299988 485823.60000038 13.40400028
142907.83599997 485822.80200005 8.95100021
142907.75799990 485822.75099945 9.99400043
142910.58500004 485821.07699966 2.04399991
142908.78800011 485821.98900032 8.38899994
142911.53299999 485820.45299911 -0.09300000
142907.09399986 485822.84799957 14.35099983
142908.17500019 485822.15200043 11.79899979
142907.36299992 485822.51199913 15.10000038
142908.12300014 485822.08699989 12.76700020
142909.01399994 485821.58600044 10.03299999
142907.29699993 485822.45100021 16.12899971
142908.35099983 485821.77099991 13.63199997
142909.79699993 485820.86100006 10.04100037
142912.11600018 485819.46699905 3.69700003
142912.44600010 485819.28000069 2.69199991
142909.54199982 485820.74099922 13.04899979
142911.79899979 485819.36400032 7.04500008
142913.97900009 485818.13100052 0.44000000
142910.05000019 485820.26099968 13.13000011
142911.91399956 485819.20599937 7.49100018
142910.30700016 485820.02599907 13.11200047
142909.50399971 485820.38999939 16.31500053
142909.78999996 485820.22699928 15.45300007
142910.72599983 485819.69499969 12.62899971
142909.77099991 485820.14900017 16.26199913
142910.79599953 485819.56500053 13.18099976
142911.42500019 485819.20899963 11.28899956
142910.87600040 485819.43300056 13.67500019
142911.30099964 485819.19099998 12.39900017
142911.99199963 485818.79700089 10.31999969
142912.51000023 485818.50300026 8.76500034
142912.04399967 485818.67799950 10.93200016
142912.57199955 485818.28400040 10.13899994
142911.08399963 485819.03700066 15.39799976
142911.54899979 485818.77199936 14.00899982
142911.88399982 485818.49600029 13.72700024
142911.93799973 485818.36899948 14.37500000
142911.90999985 485818.29999924 15.17599964
142912.09599972 485818.19300079 14.62399960
142912.21199989 485818.03599930 15.04399967
142905.43100023 485825.07600021 3.67199993
142904.05999994 485825.73100090 8.86800003
142904.14699984 485825.58499908 9.40799999
142904.51300001 485825.38400078 8.23999977
142905.18599987 485825.01399994 6.09700012
142904.26300001 485825.42499924 9.84500027
142905.13100004 485824.85899925 7.85200024
142906.50799990 485824.10000038 3.48399997
142905.24100018 485824.70400047 8.29500008
142907.26800013 485823.58799934 1.88000000
142907.54199982 485823.43700027 1.00899994
142904.52899981 485825.00099945 11.36600018
142905.53900003 485824.44400024 8.17300034
142905.91499996 485824.23600006 6.98099995
142904.63100004 485824.84399986 11.89900017
142906.11700010 485824.02300072 7.21000004
142905.22599983 485824.42499924 10.78299999
142906.45499992 485823.74600029 6.90899992
142905.09000015 485824.39999962 12.06499958
142905.91900015 485823.94099998 9.46000004
142906.68900013 485823.51499939 7.04400015
142905.40500021 485824.13699913 11.81799984
142905.78900003 485823.92499924 10.61400032
142906.64099979 485823.45299911 7.94500017
142906.78900003 485823.37100029 7.48199987
142905.46700001 485824.01000023 12.41300011
142907.00400019 485823.15800095 7.60599995
142907.80100012 485822.62599945 5.85900021
142908.89700031 485821.91500092 3.30500007
142908.22399998 485822.19300079 6.21299982
142907.53499985 485822.48299980 9.15600014
142908.58300018 485821.89900017 5.90000010
142906.52500010 485822.95100021 13.10000038
142907.19199991 485822.57900047 11.03199959
142906.99200010 485822.60000038 12.42500019
142907.54099989 485822.29199982 10.72599983
142906.81400013 485822.61100006 13.70400047
142907.64099979 485822.14900017 11.15100002
142908.46899986 485821.68600082 8.59399986
142910.98200035 485820.18300056 1.62699997
142907.88899994 485821.82299995 11.97599983
142909.25199986 485820.95999908 8.61400032
142910.24499989 485820.40200043 5.56500006
142908.83699989 485821.10600090 10.64299965
142910.43400002 485820.20700073 5.74499989
142909.43299961 485820.67099953 9.65900040
142908.28699970 485821.22900009 13.88500023
142908.68099976 485821.00699997 12.68400002
142909.64099979 485820.46599960 9.75399971
142908.73700047 485820.88599968 13.27099991
142908.98499966 485820.74600029 12.52000046
142908.93999958 485820.68499947 13.38799953
142909.69099998 485820.26000023 11.10200024
142910.29899979 485819.81699944 10.09300041
142912.87600040 485818.26099968 3.08599997
142911.79199982 485818.78599930 7.13700008
142910.08100033 485819.66300011 13.10700035
142910.55000019 485819.39699936 11.69299984
142910.15400028 485819.53300095 13.63700008
142910.43299961 485819.28800011 13.53600025
142910.85499954 485819.04700089 12.26599979
142911.74199963 485818.54199982 9.59300041
142911.04100037 485818.85199928 12.45400047
142912.22200012 485818.18099976 8.90699959
142910.94200039 485818.81599998 13.54899979
142910.89299965 485818.74799919 14.51399994
142911.50599957 485818.13299942 14.92399979
142912.03899956 485817.73699951 14.09500027
142903.86299992 485825.45100021 8.86600018
142904.20499992 485825.07900047 9.35299969
142904.44500017 485824.94700050 8.58899975
142906.19799995 485823.89100075 3.79299998
142907.05600023 485823.31800079 1.93299997
142904.42000008 485824.67399979 11.09399986
142905.17500019 485824.25699997 8.71199989
142905.60500002 485824.02000046 7.35099983
142904.55299997 485824.50699997 11.46500015
142904.92999983 485824.29899979 10.27799988
142906.19999981 485823.49900055 7.10799980
142906.84499979 485823.14200020 5.08099985
142907.36000013 485822.85600090 3.45600009
142908.29199982 485822.34199905 0.52600002
142905.77400017 485823.63999939 9.24100018
142907.09299994 485822.90999985 5.10300016
142905.25099993 485823.84300041 11.63899994
142906.39300013 485823.20800018 8.05300045
142906.57200003 485823.11000061 7.49700022
142906.07600021 485823.29299927 9.82499981
142906.69999981 485822.85000038 8.69200039
142906.96099997 485822.60499954 8.72700024
142908.73200035 485821.61899948 3.20700002
142905.79500008 485823.16399956 13.11900043
142906.83400011 485822.48699951 10.73099995
142907.24700022 485822.25499916 9.44600010
142905.75799990 485822.99799919 14.80700016
142906.77600002 485822.43000031 11.65400028
142905.85099983 485822.85700035 15.28299999
142907.54199982 485821.91200066 10.05500031
142906.55299997 485822.37700081 13.85099983
142907.40299988 485821.90099907 11.22399998
142906.61999989 485822.24099922 14.47099972
142907.50299978 485821.74600029 11.75199986
142906.93900013 485821.96699905 14.29500008
142907.87300014 485821.35000038 12.20199966
142909.24699974 485820.48399925 8.78800011
142910.23200035 485819.93099976 5.77099991
142908.72700024 485820.68600082 11.15699959
142908.96899986 485820.55100060 10.41800022
142908.58399963 485820.68099976 12.32199955
142908.88700008 485820.51000023 11.39700031
142909.09599972 485820.39200020 10.75599957
142909.19600010 485820.24500084 11.22299957
142909.65600014 485819.98500061 9.82299995
142908.90100002 485820.31900024 12.91800022
142909.87600040 485819.76600075 9.95199966
142909.68999958 485819.77300072 11.35599995
142912.53199959 485818.07399940 3.47799993
142909.47900009 485819.70800018 13.54699993
142909.72000027 485819.57200050 12.82100010
142910.12600040 485819.25600052 12.31599998
142910.31599998 485819.14900017 11.74199963
142909.80000019 485819.35300064 14.06000042
142910.17700005 485819.13699913 12.92099953
142909.85400009 485819.23600006 14.63000011
142910.31999969 485818.96999931 13.22599983
142910.83600044 485818.57699966 12.49899960
142910.83300018 485818.48800087 13.28999996
142912.14700031 485817.73800087 9.34799957
142910.71000004 485818.46899986 14.41800022
142911.75599957 485817.87100029 11.28899956
142910.80700016 485818.32399940 14.90100002
142911.08399963 485818.16500092 14.07100010
142911.23099995 485817.90699959 15.09799957
142903.60700011 485825.30800056 8.98400021
142904.26900005 485824.76000023 8.44900036
142904.27899981 485824.65299988 9.27299976
142905.94899988 485823.73399925 3.97700000
142904.31500006 485824.53499985 9.98200035
142904.15700006 485824.52899933 11.27299976
142904.54199982 485824.31699944 10.05500031
142905.30200005 485823.89699936 7.65299988
142904.30900002 485824.34700012 11.62399960
142904.53700018 485824.22100067 10.90600014
142904.88700008 485824.02799988 9.79800034
142905.51599979 485823.68099976 7.81799984
142904.42199993 485824.19400024 12.03999996
142904.66499996 485823.96999931 12.02700043
142905.08099985 485823.73999977 10.72200012
142905.77099991 485823.35799980 8.55399990
142904.98299980 485823.70100021 11.82800007
142906.15999985 485823.04899979 8.13500023
142905.82999992 485823.13699913 9.97500038
142905.88299990 485823.00600052 10.67000008
142906.50099993 485822.66200066 8.73900032
142907.46500015 485822.03800011 6.47399998
142905.76900005 485822.79400063 13.35900021
142907.02299976 485822.09399986 9.46199989
142906.20800018 485822.45800018 12.76700020
142906.45699978 485822.31900024 11.99300003
142905.67000008 485822.67000008 15.17099953
142906.85699987 485822.00799942 11.50399971
142905.71799994 485822.54599953 15.85499954
142906.43599987 485822.14399910 13.63700008
142905.93300009 485822.33099937 15.99400043
142906.63600016 485821.93600082 13.82600021
142907.26800013 485821.58300018 11.87899971
142906.39499998 485821.98299980 15.32800007
142908.21500015 485820.96199989 9.73499966
142906.85799980 485821.62800026 14.70800018
142907.34800005 485821.35300064 13.20600033
142907.40700006 485821.22900009 13.79199982
142907.58599997 485821.04199982 13.96700001
142907.94000006 485820.84300041 12.88500023
142908.47900009 485820.54000092 11.23999977
142909.34000015 485820.05599976 8.60999966
142908.32900047 485820.53100014 12.48200035
142908.45899963 485820.36700058 12.86800003
142908.78899956 485820.18000031 11.86299992
142908.53499985 485820.22400093 13.47099972
142908.81700039 485820.06500053 12.61900043
142909.76500034 485819.53000069 9.73700047
142908.93900013 485819.91099930 12.97799969
142909.76599979 485819.44199944 10.46399975
142912.68099976 485817.69400024 2.46000004
142910.08699989 485819.07699966 11.05000019
142910.01099968 485819.03000069 12.03699970
142909.97999954 485818.95999908 12.87199974
142909.90100002 485818.81599998 14.71199989
142910.35700035 485818.55500031 13.34300041
142910.59099960 485818.42300034 12.64299965
142910.32800007 485818.48500061 14.18599987
142910.95600033 485818.03300095 13.08300018
142911.79599953 485817.46400070 11.33399963
142904.00799990 485824.54000092 8.68500042
142905.85599995 485823.42600060 3.64800000
142906.26300001 485823.20199966 2.35800004
142904.63600016 485824.00300026 8.31099987
142906.01999998 485823.23999977 3.93300009
142906.60500002 485822.91900063 2.08200002
142904.13199997 485824.18300056 10.72200012
142904.90399981 485823.75900078 8.28499985
142905.52400017 485823.32099915 7.13899994
142907.06599998 485822.46999931 2.28099990
142904.39900017 485823.85300064 11.43799973
142905.73299980 485823.11700058 7.23999977
142904.90299988 485823.48200035 10.63399982
142905.53700018 485823.13100052 8.64599991
142905.98299980 485822.88400078 7.24100018
142908.19400024 485821.66099930 0.30300000
142904.59000015 485823.55900002 12.43299961
142905.95200014 485822.80400085 8.16300011
142905.65000010 485822.87299919 9.95400047
142906.02500010 485822.66399956 8.78100014
142906.72499990 485822.27499962 6.59200001
142907.23299980 485821.99399948 5.00799990
142905.71999979 485822.74500084 10.48600006
142907.06300020 485821.89800072 7.15199995
142905.17100000 485822.86100006 13.80099964
142906.61899996 485822.05500031 9.29599953
142905.88899994 485822.28300095 13.07999992
142905.82100010 485822.22200012 14.12600040
142906.64599991 485821.76199913 11.57499981
142905.77799988 485822.15299988 15.05000019
142907.30000019 485821.30200005 10.35799980
142905.56799984 485822.17700005 16.48500061
142906.33699989 485821.74600029 14.11299992
142907.05800009 485821.25000000 12.68700027
142907.25799990 485821.13699913 12.07199955
142908.15499973 485820.63400078 9.31599998
142907.01499987 485821.18199921 13.59500027
142907.24399996 485820.96899986 13.62100029
142907.71199989 485820.61400032 12.95300007
142907.42100000 485820.68400002 14.63099957
142908.39700031 485820.13500023 11.65499973
142909.06499958 485819.65900040 10.45199966
142908.72700024 485819.76199913 12.23200035
142908.70300007 485819.68000031 13.12500000
142909.75300026 485819.08499908 9.93799973
142908.90900040 485819.47699928 13.22200012
142909.60299969 485819.08399963 11.12199974
142909.78600025 485818.97999954 10.56499958
142909.71500015 485818.93099976 11.54300022
142910.04899979 485818.73999977 10.53199959
142909.65699959 485818.87700081 12.44999981
142909.90999985 485818.54500008 13.30000019
142909.77900028 485818.52799988 14.46500015
142910.35499954 485818.19899940 12.73400021
142910.18200016 485818.11800003 14.78199959
142910.56200027 485817.90099907 13.64299965
142904.62699986 485823.67700005 5.90700006
142905.11000013 485823.41200066 4.37200022
142905.22200012 485823.26000023 4.78000021
142904.55399990 485823.52599907 7.76200008
142905.06300020 485823.24500084 6.15700006
142904.59200001 485823.41500092 8.40999985
142905.38700008 485822.97500038 5.90100002
142905.91099977 485822.68700027 4.25000000
142904.03200006 485823.62899971 10.97799969
142904.32399988 485823.46899986 10.05900002
142904.26399994 485823.31399918 11.85099983
142904.67700005 485823.08499908 10.54899979
142905.91099977 485822.40200043 6.68100023
142904.56899977 485823.04999924 11.69799995
142905.65100002 485822.45000076 8.30799961
142908.18299961 485821.04400063 0.36899999
142905.35300016 485822.52099991 10.03800011
142906.10200024 485822.10400009 7.69299984
142906.30200005 485821.99399948 7.06899977
142907.01300001 485821.50300026 5.65600014
142907.59399986 485821.17900085 3.84200001
142905.50500011 485822.24900055 11.16300011
142906.19799995 485821.77499962 9.74699974
142906.46799994 485821.62299919 8.90699959
142905.54899979 485822.04500008 12.54199982
142905.97200012 485821.80900002 11.23299980
142907.14499998 485821.15399933 7.59200001
142905.44299984 485822.01000023 13.67300034
142905.98500013 485821.61000061 12.83500004
142906.36999989 485821.39200020 11.63799953
142906.97800016 485821.05400085 9.76599979
142905.61100006 485821.72999954 14.72900009
142906.43599987 485821.26899910 12.18500042
142907.09000015 485820.80299950 10.99899960
142907.70699978 485820.45700073 9.09799957
142907.43100023 485820.52400017 10.70600033
142907.90199995 485820.25799942 9.25599957
142906.60599995 485820.89599991 14.00500011
142906.95400000 485820.70100021 12.94099998
142907.60500002 485820.33499908 10.94600010
142908.05000019 485820.08300018 9.57999992
142906.57499981 485820.82699966 14.82699966
142906.63100004 485820.70000076 15.48200035
142908.28299999 485819.77000046 10.43700027
142907.12300014 485820.32900047 14.77099991
142908.10599995 485819.77400017 11.77099991
142908.68700027 485819.44499969 10.00000000
142908.17500019 485819.64399910 12.34000015
142908.93599987 485819.21299934 10.02799988
142907.86499977 485819.72500038 14.07699966
142908.05500031 485819.61700058 13.49699974
142909.01900005 485819.07099915 10.56700039
142908.19900036 485819.44700050 13.82100010
142908.90799999 485819.04500008 11.67099953
142908.48499966 485819.19899940 13.68400002
142908.82600021 485819.00600052 12.65100002
142908.76399994 485818.95199966 13.59500027
142909.78999996 485818.36800003 10.49400043
142909.72099972 485818.03499985 13.87699986
142909.97299957 485817.88999939 13.11900043
142910.28199959 485817.62999916 12.90799999
142910.26399994 485817.55200005 13.71899986
142904.19600010 485823.59000015 5.68300009
142904.85500002 485823.13999939 4.34499979
142904.08300018 485823.46199989 7.66200018
142904.18300009 485823.31699944 8.10999966
142904.92999983 485822.90399933 5.74700022
142905.25299978 485822.72699928 4.72700024
142904.39599991 485823.10499954 8.24400043
142905.00400019 485822.77000046 6.32100010
142905.69700003 485822.29599953 4.90299988
142903.84800005 485823.21999931 11.57299995
142906.14599991 485821.85000038 5.17199993
142906.69000006 485821.54800034 3.46000004
142907.67399979 485821.00300026 0.37099999
142904.38100004 485822.73699951 11.49899960
142905.76399994 485821.96899986 7.16499996
142906.07999992 485821.69700050 6.99399996
142906.82100010 485821.28499985 4.67799997
142906.86600018 485821.16399956 5.35200024
142905.61899996 485821.77099991 9.98499966
142905.82499981 485821.65699959 9.34300041
142906.88600016 485821.06399918 6.03700018
142906.17799997 485821.36599922 9.03400040
142905.18499994 485821.82699966 12.91899967
142906.10400009 485821.31500053 10.06599998
142905.07800007 485821.78800011 14.08699989
142906.62500000 485820.92300034 9.29500008
142904.94199991 485821.77799988 15.23900032
142906.08699989 485821.13699913 11.70300007
142905.88199997 485821.15299988 13.18599987
142907.29400015 485820.36000061 8.82900047
142906.69500017 485820.60899925 11.42199993
142906.94299984 485820.46999931 10.65999985
142907.44299984 485820.18899918 9.12100029
142906.46400023 485820.56299973 13.63199997
142907.80000019 485819.80999947 9.53199959
142906.54099989 485820.42099953 14.22299957
142908.01900005 485819.58900070 9.69999981
142906.68400002 485820.24799919 14.57299995
142907.11700010 485820.00399971 13.25000000
142908.04300022 485819.48200035 10.42599964
142906.61000013 485820.19799995 15.58699989
142906.82499981 485820.07600021 14.92500019
142908.23499966 485819.18700027 11.41699982
142908.96500015 485818.77400017 9.19499969
142908.02900028 485819.21299934 12.82100010
142908.71899986 485818.73699951 11.44099998
142909.34700012 485818.38100052 9.53999996
142908.42899990 485818.81299973 13.08899975
142909.18599987 485818.38199997 10.79199982
142908.61900043 485818.61100006 13.29800034
142909.04699993 485818.36899948 12.00699997
142909.67300034 485818.01199913 10.11100006
142910.12600040 485817.21299934 13.34000015
142904.52699995 485822.94499969 5.49499989
142904.06899977 485823.10199928 7.76000023
142904.79500008 485822.70100021 5.46099997
142904.20400000 485822.93899918 8.08399963
142905.16499996 485822.40800095 5.05000019
142904.97399998 485822.41300011 6.51399994
142905.41099977 485822.17099953 5.14300013
142905.92999983 485821.78599930 4.33699989
142906.35099983 485821.55299950 3.01200008
142903.98499990 485822.77000046 11.23799992
142905.85400009 485821.63599968 6.20499992
142906.70900011 485821.16099930 3.52500010
142906.41499996 485821.23299980 5.23600006
142906.60900021 485821.12400055 4.62699986
142907.15999985 485820.81900024 2.90499997
142905.31699991 485821.75399971 9.42199993
142906.68499994 485820.99300003 5.15600014
142905.51599979 485821.54999924 9.59599972
142906.71199989 485820.88299942 5.87099981
142904.66900015 485821.92700005 13.03299999
142905.93699980 485821.21999931 9.08500004
142904.87400007 485821.71400070 13.23600006
142906.23199987 485820.95499992 9.02099991
142904.87400007 485821.62599945 13.97700024
142905.29600000 485821.39200020 12.67099953
142904.79199982 485821.57200050 15.07299995
142905.05700016 485821.42499924 14.25699997
142905.86299992 485820.97400093 11.76099968
142905.67899990 485820.99099922 13.07299995
142907.07600021 485820.20700073 8.76299953
142906.59200001 485820.38800049 11.02499962
142905.97100019 485820.64900017 13.67599964
142906.53900003 485820.32999992 11.93200016
142906.74700022 485820.21299934 11.29100037
142906.11000013 485820.47400093 14.06999969
142906.94899988 485820.00200081 11.50000000
142907.15700006 485819.78899956 11.67500019
142907.75099993 485819.45499992 9.86200047
142906.50400019 485820.06800079 14.43200016
142906.98299980 485819.79800034 12.96800041
142906.27099991 485820.10400009 15.94299984
142907.75299978 485819.17900085 12.18799973
142907.83400011 485819.04800034 12.67399979
142908.19200039 485818.84499931 11.58500004
142908.16499996 485818.76899910 12.43599987
142908.54599953 485818.55400085 11.27900028
142907.89200020 485818.83099937 14.04399967
142908.22200012 485818.64599991 13.05000019
142908.73400021 485818.35400009 11.49600029
142907.98899984 485818.67799950 14.58699989
142908.89799976 485818.16200066 11.84200001
142904.10799980 485822.92000008 5.38999987
142903.93899989 485822.91799927 6.73099995
142904.65899992 485822.43099976 5.23099995
142904.91699982 485822.18700027 5.27699995
142905.48999977 485821.77499962 4.29199982
142905.20300007 485821.83799934 5.99499989
142905.65100002 485821.59099960 4.58599997
142906.09999990 485821.34099960 3.17100000
142906.25299978 485821.15999985 3.52099991
142906.36399984 485821.00099945 3.99000001
142906.17299986 485821.01899910 5.34800005
142906.37400007 485820.90800095 4.71999979
142905.21799994 485821.36100006 9.92899990
142905.68499994 485821.00099945 9.31599998
142907.02199984 485820.25699997 5.16800022
142907.23999977 485820.04599953 5.24200010
142906.39900017 485820.41500092 8.70199966
142906.84100008 485819.98699951 8.87399960
142905.77500010 485820.49799919 12.89400005
142906.30900002 485820.19799995 11.24699974
142905.88000011 485820.34099960 13.40699959
142906.36899996 485820.06500053 11.90400028
142906.69799995 485819.88100052 10.89599991
142905.76999998 485820.30800056 14.53400040
142906.49399996 485819.90299988 12.31400013
142906.15100002 485820.00399971 14.13300037
142907.00799990 485819.52199936 11.51000023
142906.18300009 485819.89200020 14.82800007
142907.63199997 485819.07699966 10.40900040
142907.16699982 485819.24699974 12.60599995
142907.43499994 485818.92000008 13.27700043
142907.64200020 485818.80299950 12.65100002
142907.71600008 485818.66900063 13.21700001
142908.27499962 485818.35099983 11.51700020
142907.69999981 485818.57900047 14.08600044
142908.53800011 485818.10400009 11.54899979
142903.98600006 485822.40200043 5.75299978
142904.57999992 485821.87700081 5.56699991
142905.76999998 485821.02599907 3.44400001
142905.19399977 485821.25600052 6.02400017
142905.45599985 485821.01799965 5.99300003
142905.85300016 485820.79800034 4.75000000
142906.22300005 485820.40099907 5.22100019
142905.88100004 485820.03599930 11.02200031
142906.39499998 485819.74699974 9.43500042
142906.07900000 485819.82900047 11.21199989
142906.79500008 485819.42700005 9.01099968
142905.97300005 485819.79199982 12.36600018
142907.11100006 485819.15200043 8.87399960
142906.16400003 485819.59700012 12.52900028
142906.38500023 485819.47200012 11.85200024
142906.65799999 485819.31900024 11.01500034
142906.75400019 485819.16799927 11.54399967
142907.29300022 485818.86300087 9.89299965
142907.39300013 485818.71999931 10.34099960
142907.48000002 485818.57900047 10.84399986
142904.00600004 485821.89699936 5.90600014
142905.96799994 485820.14800072 5.38199997
142905.46700001 485819.87299919 11.65900040
142906.18699980 485819.46999931 9.44299984
142905.49100018 485819.76199913 12.42500019
142905.93100023 485819.42799950 11.80099964
142906.49700022 485819.11100006 10.06400013
142906.92799997 485818.86800003 8.73999977
142905.86600018 485819.36700058 12.82900047
142906.13100004 485819.13100052 12.75300026
142906.59299994 485818.87100029 11.34700012
142907.03299999 485818.62299919 9.99699974
142906.73600006 485818.69799995 11.69200039
142907.23199987 485818.41799927 10.17700005
142907.28599977 485818.30100060 10.74899960
142906.04899979 485819.27099991 9.21199989
142905.35099983 485819.57799911 12.10000038
142905.82100010 485819.21299934 11.49699974
142906.39499998 485818.89100075 9.73700047
142905.85099983 485819.11100006 12.12699986
142906.73199987 485818.52400017 10.22500038
142907.05700016 485818.25399971 9.96700001
142907.16599989 485818.09499931 10.46500015
142907.15500021 485818.00600052 11.28899956
142905.82200003 485819.22200012 11.49600029
142905.76999998 485819.34900093 11.98400021
142905.86399984 485819.33600044 12.80500031
142905.42799997 485819.73699951 11.68999958
142905.36700010 485819.87100029 12.14500046
142907.17799997 485817.97900009 10.57900047
142907.10599995 485818.12299919 11.01000023
142906.69000006 485818.50399971 9.93400002
142906.73999977 485818.54000092 10.70400047
142906.37599993 485818.87400055 9.76399994
142906.09000015 485819.22100067 9.69400024
142906.62599993 485818.80500031 11.65699959
142906.25500011 485819.30699921 11.96899986
142906.04799986 485819.57600021 12.06000042
142905.84999990 485819.83200073 12.13799953
142905.81899977 485820.02499962 13.35000038
142906.23199987 485819.72200012 15.01599979
142905.70499992 485820.20800018 13.67199993
142905.78900003 485820.20899963 14.51799965
142905.47200012 485820.50399971 13.70699978
142904.93699980 485821.22800064 14.15999985
142904.81199980 485821.42300034 14.46899986
142904.78800011 485821.52899933 15.06499958
142904.66099977 485821.71899986 15.32199955
142907.12699986 485818.37199974 9.89500046
142906.95800018 485818.60600090 10.09500027
142906.52299976 485819.09099960 9.64400005
142906.23199987 485819.43400002 9.48900032
142907.37799978 485818.46899986 13.10400009
142906.69000006 485819.10000038 11.33300018
142906.31599998 485819.51899910 10.97200012
142905.84000015 485820.10899925 10.95800018
142905.92399979 485820.11800003 11.83500004
142905.84800005 485820.26700020 12.27000046
142904.78900003 485821.31999969 10.18799973
142906.16099977 485820.13800049 14.31799984
142905.83099985 485820.44199944 13.47599983
142906.03999996 485820.32900047 14.63000011
142906.30000019 485820.16399956 15.86100006
142905.07299995 485821.29199982 12.74800014
142904.89499998 485821.53499985 12.91199970
142905.13199997 485821.39999962 14.14099979
142904.85900021 485821.65099907 13.44900036
142904.94899988 485821.65200043 14.33100033
142904.77699995 485821.88500023 14.47999954
142907.63899994 485818.34199905 10.73400021
142907.45400000 485818.59799957 10.92700005
142906.64300013 485819.34000015 8.83199978
142907.73699999 485818.41600037 12.26000023
142906.60200024 485819.45499992 9.33300018
142907.53100014 485818.69099998 12.38899994
142906.42199993 485819.70400047 9.53499985
142907.69399977 485818.61599922 13.40100002
142906.72300005 485819.50600052 10.90499973
142907.73500013 485818.65399933 14.11100006
142907.17999983 485819.16399956 12.68400002
142906.41800022 485819.86300087 10.72700024
142907.43300009 485819.00699997 13.92199993
142906.38000011 485819.97400093 11.22200012
142906.45400000 485819.98900032 12.07600021
142906.21799994 485820.20700073 11.46800041
142905.41499996 485820.94199944 9.41499996
142903.95400000 485822.36700058 6.32200003
142906.90500021 485819.81699944 15.11600018
142906.08799982 485820.56800079 13.03400040
142904.97800016 485821.58900070 10.19999981
142906.50199986 485820.26399994 14.69900036
142906.07000017 485820.66099930 13.59899998
142906.61800003 485820.23200035 15.56999969
142905.99599981 485820.80500031 13.98799992
142905.53599977 485821.22699928 12.81999969
142905.50699997 485821.33200073 13.36200047
142906.20499992 485820.77199936 15.77000046
142905.03299999 485821.85000038 12.80000019
142905.61100006 485821.40200043 14.91699982
142904.23199987 485822.67200089 11.42800045
142905.17199993 485821.96599960 15.03899956
142903.85400009 485823.18199921 11.71700001
142904.73099995 485822.44700050 14.50399971
142908.48600006 485818.12500000 11.57600021
142907.62200022 485819.07699966 10.59399986
142907.02299976 485819.62500000 9.04500008
142908.36999989 485818.47400093 13.16399956
142908.04500008 485818.77099991 12.32600021
142907.78999996 485819.08499908 12.29399967
142906.72100019 485820.06399918 9.53999996
142907.56799984 485819.44199944 12.92199993
142907.07999992 485819.89100075 11.66600037
142906.68699980 485820.25099945 10.65699959
142906.58900023 485820.42300034 11.05200005
142905.84899998 485821.10199928 9.15499973
142907.13000011 485820.01000023 13.09799957
142905.40600014 485821.67000008 9.28100014
142903.96600008 485822.99399948 5.59600019
142906.11999989 485821.09900093 11.75899982
142905.31500006 485821.83799934 9.70800018
142904.11199999 485822.94499969 6.63299990
142906.70200014 485820.63800049 13.84599972
142906.55600023 485820.85099983 14.08600044
142906.63899994 485820.84799957 14.87300014
142905.84000015 485821.58300018 12.84300041
142905.59399986 485821.80900002 12.21700001
142906.74900007 485820.82999992 15.80799961
142905.31899977 485822.22900009 12.81000042
142905.76399994 485821.89800072 14.55099964
142904.35699987 485823.19499969 10.98999977
142905.79199982 485821.95199966 15.25399971
142904.15399981 485823.46299934 11.11600018
142905.64099979 485822.16799927 15.47599983
142905.17199993 485822.60099983 14.29100037
142904.18100023 485823.51799965 11.79100037
142908.91100025 485818.16500092 11.40600014
142908.73600006 485818.40800095 11.59200001
142907.80700016 485819.25900078 9.18500042
142907.65600014 485819.47599983 9.41199970
142908.24100018 485819.02099991 11.56299973
142907.26200008 485819.91799927 9.03299999
142907.49300003 485819.78599930 10.25100040
142906.77199984 485820.44700050 8.38899994
142905.65399981 485821.46999931 5.50600004
142907.94600010 485819.44499969 12.00800037
142906.59600019 485820.68400002 8.52999973
142905.34200001 485821.91399956 5.94000006
142904.94000006 485822.28400040 4.90600014
142908.14599991 485819.42200089 13.78699970
142907.45800018 485820.05500031 12.01599979
142906.95200014 485820.52000046 10.71800041
142906.25500011 485821.15900040 8.92700005
142907.86299992 485819.76799965 13.72599983
142906.93300009 485820.62199974 11.34000015
142906.01100016 485821.46899986 8.97399998
142907.85099983 485819.85099983 14.27400017
142907.25400019 485820.40099907 12.74199963
142906.15500021 485821.40900040 9.92899990
142905.86199999 485821.76600075 9.84599972
142907.38600016 485820.43799973 14.32699966
142906.38600016 485821.36000061 11.76900005
142905.97599983 485821.73600006 10.72299957
142905.89300013 485821.89100075 11.14000034
142904.25899982 485823.47400093 7.56500006
142905.83699989 485822.10099983 12.24800014
142905.17799997 485822.71100044 10.56599998
142904.90000010 485822.96699905 9.85900021
142904.37500000 485823.45100021 8.52499962
142905.77199984 485822.24200058 12.71800041
142904.60799980 485823.31900024 9.75699997
142906.05100012 485822.06399918 14.02299976
142904.70200014 485823.30699921 10.60700035
142905.88199997 485822.30100060 14.22500038
142904.67600012 485823.41300011 11.17500019
142905.83799982 485822.41799927 14.72299957
142905.56199980 485822.67300034 14.02600002
142904.46099997 485823.68899918 11.24499989
142904.11600018 485824.00900078 10.37300014
142905.73500013 485822.58699989 15.05399990
142905.31799984 485822.97400093 13.99699974
142904.64799976 485823.59199905 12.30799961
142904.36700010 485823.85300064 11.59899998
142905.74499989 485822.65600014 15.68700027
142904.61000013 485823.70499992 12.82600021
142903.75099993 485824.58099937 11.28999996
142906.76700020 485820.32600021 3.89800000
142910.20899963 485817.26700020 13.54199982
142910.13199997 485817.41799927 13.96899986
142908.67099953 485818.75300026 10.17800045
142909.77900028 485817.81999969 13.68099976
142909.65100002 485818.01899910 13.98200035
142907.90199995 485819.61899948 9.45499992
142909.56200027 485818.17900085 14.36699963
142908.72700024 485818.94300079 12.20699978
142908.07900047 485819.53599930 10.53400040
142907.70200014 485819.95599937 10.15699959
142907.21899986 485820.39900017 8.90900040
142906.98400021 485820.61499977 8.30099964
142905.85900021 485821.64500046 5.39799976
142908.77099991 485819.05800056 13.52900028
142908.33600044 485819.45599937 12.40699959
142908.09000015 485819.68099976 11.77299976
142906.83500004 485820.83099937 8.53999996
142908.61999989 485819.27599907 13.78199959
142907.95800018 485819.88400078 12.07600021
142908.07499981 485819.86100006 13.03699970
142907.07299995 485820.77899933 10.46500015
142908.22999954 485819.79199982 14.02400017
142907.07700014 485820.85300064 11.06400013
142907.69399977 485820.37000084 13.31700039
142906.12400007 485821.81200027 9.29800034
142907.61399984 485820.51799965 13.69299984
142905.55299997 485822.41099930 8.42099953
142907.03999996 485821.12500000 12.85099983
142906.08500004 485822.07799911 10.98799992
142905.09299994 485822.98900032 8.45899963
142904.33099985 485823.69300079 6.51200008
142905.46999979 485822.72999954 10.09300041
142906.09000015 485822.23800087 12.31000042
142905.72800016 485822.57200050 11.39000034
142905.00400019 485823.24099922 9.54500008
142906.85699987 485821.61000061 14.86200047
142906.43499994 485821.99900055 13.78999996
142906.10599995 485822.29999924 12.95899963
142906.07999992 485822.40800095 13.52200031
142904.93100023 485823.46599960 10.61200047
142905.73999977 485822.79800034 13.26599979
142904.45800018 485823.98200035 10.02200031
142905.65199995 485822.95499992 13.63799953
142904.86499977 485823.68099976 11.64999962
142905.87799978 485822.82200050 14.81000042
142904.82399988 485823.79599953 12.15299988
142904.23099995 485824.34399986 10.65499973
142905.80000019 485822.97599983 15.24899960
142904.57600021 485824.10799980 12.16499996
142905.80399990 485823.05500031 15.91100025
142910.42700005 485817.40999985 12.93400002
142909.10599995 485818.61700058 9.49300003
142909.30700016 485818.52000046 10.68500042
142907.62400007 485820.05800056 6.30700016
142910.06999969 485817.89699936 13.25899982
142909.38399982 485818.52400017 11.48099995
142909.01200008 485818.86499977 10.51200008
142910.18799973 485817.87700081 14.24199963
142910.15200043 485817.98399925 14.73600006
142908.93799973 485819.09499931 11.59099960
142909.58699989 485818.57999992 13.89000034
142908.57499981 485819.50799942 11.27600002
142909.66300011 485818.58499908 14.66800022
142908.87899971 485819.30299950 12.64500046
142908.91100025 485819.35799980 13.39400005
142908.30099964 485819.91699982 11.81799984
142908.61800003 485819.70700073 13.27099991
142907.45499992 485820.85400009 10.90100002
142907.24900007 485821.04100037 10.37500000
142906.13100004 485822.06900024 7.50099993
142907.15299988 485821.21299934 10.77700043
142906.65899992 485821.66600037 9.51099968
142907.85400009 485820.64900017 13.18400002
142906.47200012 485821.91600037 9.64799976
142905.92199993 485822.49600029 8.82600021
142904.69999981 485823.62000084 5.69999981
142906.76000023 485821.80699921 11.57999992
142905.46099997 485822.99900055 8.26500034
142907.19700003 485821.48399925 13.33399963
142906.43200016 485822.27300072 12.04500008
142905.86100006 485822.79800034 10.59099960
142904.83099985 485823.74600029 7.96999979
142906.87900019 485821.93700027 13.77799988
142906.36899996 485822.40500069 12.48299980
142904.69299984 485823.95100021 8.21700001
142906.69099998 485822.19499969 13.96100044
142906.22200012 485822.62599945 12.77200031
142906.46099997 485822.48200035 13.95100021
142904.82499981 485823.98900032 9.80799961
142906.37900019 485822.63400078 14.34899998
142905.84999990 485823.12000084 13.01099968
142905.07900000 485823.90600014 11.64400005
142904.61199999 485824.33699989 10.46500015
142904.52400017 485824.50300026 10.90799999
142904.38700008 485824.71299934 11.20499992
142903.59899998 485825.44000053 9.21899986
142904.47900009 485824.70599937 12.04500008
142910.18999958 485818.14699936 10.98499966
142909.59700012 485818.77700043 10.11400032
142909.18500042 485819.15299988 9.03999996
142908.12600040 485820.12100029 6.28299999
142910.50399971 485818.02300072 13.06099987
142909.01099968 485819.38699913 9.17700005
142909.61200047 485818.92300034 11.40799999
142909.05000019 485819.43700027 9.94999981
142910.08600044 485818.56599998 13.22900009
142910.05399990 485818.67399979 13.77000046
142908.81400013 485819.80999947 10.56299973
142910.06499958 485818.73900032 14.39400005
142908.07999992 485820.55800056 9.26299953
142908.98099995 485819.81599998 12.25199986
142907.54699993 485821.12999916 8.55300045
142907.10500002 485821.53499985 7.41099977
142908.94799995 485819.92799950 12.80799961
142908.39599991 485820.43600082 11.38300037
142908.83600044 485820.10899925 13.13000011
142908.39200020 485820.51499939 11.98900032
142907.46299982 485821.45000076 10.24699974
142906.27600002 485822.54199982 7.19600010
142905.51000023 485823.24399948 5.22900009
142908.31999969 485820.74200058 13.05900002
142906.91499996 485822.03199959 9.45699978
142907.87799978 485821.22400093 12.51700020
142906.37200022 485822.60700035 8.65999985
142905.98500013 485822.96500015 7.66800022
142907.47200012 485821.67600060 12.09700012
142906.06599998 485822.96800041 8.50100040
142906.93400002 485822.25000000 11.35299969
142905.49499989 485823.57500076 7.67799997
142906.77600002 485822.47999954 11.62399960
142905.65600014 485823.58799934 9.34700012
142905.10099983 485824.10000038 7.93300009
142906.89699984 485822.52799988 13.17800045
142906.67199993 485822.73500061 12.60599995
142906.88700008 485822.61100006 13.72900009
142906.52199984 485822.94599915 12.80200005
142905.31799984 485824.05999947 9.73900032
142904.92000008 485824.42600060 8.73200035
142906.78800011 485822.78199959 14.09399986
142905.50799990 485823.96299934 10.84899998
142905.20100021 485824.24699974 10.07100010
142906.69299984 485822.94300079 14.43500042
142905.44600010 485824.09399986 11.27999973
142907.28499985 485822.47999954 16.58200073
142906.46999979 485823.23200035 14.52200031
142905.36399984 485824.25300026 11.72799969
142905.17199993 485824.51099968 11.87399960
142903.83299994 485825.74900055 8.49400043
142904.88600016 485824.85400009 11.76799965
142904.00299978 485825.67099953 9.54199982
142905.27299976 485824.57699966 13.37699986
142905.25500011 485824.67200089 13.94299984
142905.27299976 485824.72800064 14.56000042
142904.86299992 485825.18400002 14.14400005
142904.81599998 485825.30699921 14.64599991
142904.08900023 485826.06500053 13.48999977
142910.18999958 485817.82999992 3.98300004
142909.93700027 485818.13599968 3.91599989
142909.68000031 485818.45700073 3.92199993
142910.13500023 485818.69499969 10.26299953
142910.97399998 485818.00399971 13.04100037
142910.00100040 485818.89399910 10.51000023
142909.76900005 485819.10600090 9.90299988
142909.34099960 485819.49799919 8.78999996
142910.82999992 485818.22100067 13.33300018
142910.57800007 485818.45199966 12.67700005
142909.68400002 485819.26899910 10.35499954
142909.03400040 485819.86400032 8.66300011
142910.89000034 485818.23999977 14.07299995
142910.11999989 485818.94499969 12.07299995
142909.64700031 485819.37700081 10.84700012
142908.89099979 485820.06900024 8.88500023
142910.83600044 485818.36800003 14.54800034
142910.08100033 485819.05999947 12.59000015
142910.15400028 485819.06699944 13.36800003
142909.68900013 485819.58099937 12.84599972
142908.24800014 485820.89999962 9.12600040
142909.94900036 485819.42200089 14.14999962
142908.19799995 485821.02799988 9.63500023
142909.02999973 485820.42399979 13.03499985
142908.75699997 485820.67499924 12.32999992
142908.97599983 485820.55100060 13.50599957
142907.16099977 485822.29299927 9.43700027
142907.55100012 485822.01600075 11.06299973
142909.41800022 485820.37700081 16.48299980
142908.35200024 485821.35799980 13.75800037
142908.19699955 485821.58399963 14.01799965
142907.13500023 485822.56299973 11.30200005
142905.13600016 485824.56500053 7.45800018
142905.89599991 485823.93899918 9.97799969
142904.99100018 485824.77400017 7.67999983
142905.96099997 485823.95499992 10.76299953
142907.56899977 485822.54700089 15.43599987
142907.58900023 485822.61300087 16.14500046
142906.50699997 485823.61199951 13.40499973
142908.44400024 485821.90099907 18.92499924
142907.46500015 485822.80599976 16.45299911
142906.36299992 485823.82399940 13.66600037
142905.39599991 485824.79500008 11.83300018
142904.41300011 485825.70400047 9.35099983
142907.30900002 485823.10600090 17.28100014
142905.63399982 485824.65600014 13.06200027
142904.66200018 485825.70700073 11.82299995
142905.28000021 485825.21199989 13.97900009
142905.08400011 485825.47400093 14.11600018
142904.36499977 485826.22200012 12.96000004
142904.13600016 485826.59199905 13.62600040
142910.96599960 485817.12599945 2.93099999
142910.49100018 485817.64299965 2.33800006
142910.06700039 485818.02599907 1.21599996
142909.47299957 485818.80599976 1.53699994
142910.10400009 485818.31699944 3.86500001
142909.77200031 485818.70700073 3.67799997
142909.51500034 485818.93899918 3.00200009
142909.67399979 485818.87400055 4.02799988
142907.51100016 485821.08799934 0.28099999
142909.47500038 485819.37700081 6.03700018
142910.13700008 485819.10499954 10.37600040
142908.38899994 485820.70000076 5.82600021
142911.27799988 485818.14100075 13.95800018
142910.70699978 485818.66300011 12.47799969
142909.20100021 485820.03899956 8.56299973
142911.51299953 485818.00000000 15.15600014
142911.01700020 485818.45299911 13.86900043
142910.66300011 485818.77799988 12.94999981
142909.68400002 485819.67300034 10.40999985
142911.39900017 485818.18199921 15.47799969
142910.89000034 485818.64900017 14.15999985
142910.22399998 485819.25799942 12.43299961
142909.43799973 485819.97699928 10.39700031
142910.54100037 485819.04899979 13.89099979
142909.23999977 485820.23999977 10.52299976
142910.19699955 485819.44899940 13.67399979
142909.92899990 485819.69499969 12.98400021
142909.27700043 485820.29299927 11.29800034
142908.99499989 485820.54999924 10.57100010
142908.35799980 485821.13400078 8.92700005
142907.38000011 485822.10400009 6.98999977
142907.32499981 485822.15500069 6.84499979
142908.84500027 485820.84900093 11.44299984
142908.96199989 485820.81500053 12.32999992
142908.84899998 485820.99600029 12.65400028
142909.84399986 485820.15900040 15.80200005
142908.78899956 485821.12800026 13.09500027
142907.62699986 485822.27899933 10.77600002
142909.72700024 485820.43000031 16.78800011
142907.91400003 485822.09700012 12.15299988
142907.35200024 485822.61300087 10.71599960
142908.25599957 485821.85899925 13.63799953
142907.87099981 485822.21199989 12.65299988
142908.10099983 485822.08200073 13.87899971
142906.18300009 485823.92700005 9.60799980
142906.20900011 485823.97699928 10.25800037
142905.38100004 485824.74099922 8.15400028
142905.14900017 485824.95599937 7.56199980
