142915.39999962 485823.87000084 11.65999985
142914.10999966 485826.18000031 2.01999998
142914.85999966 485823.35000038 12.14999962
142914.10000038 485823.67000008 9.67000008
142913.59000015 485823.04000092 10.56000042
142913.21000004 485821.96999931 13.06999969
142912.64999962 485821.54000092 13.26000023
142911.82999992 485822.01000023 10.18000031
142911.47999954 485820.87000084 12.90999985
142910.82999992 485820.76000023 11.90999985
142910.30000019 485820.25000000 12.39000034
142908.96000004 485822.32999992 3.27999997
142914.88000011 485822.57999992 11.18999958
142914.55000019 485821.29999924 14.47000027
142913.86999989 485821.32999992 13.00000000
142913.35000038 485820.78000069 13.63000011
142912.31000042 485822.01000023 7.78999996
142911.97999954 485820.79999924 10.80000019
142911.43999958 485820.29000092 11.25000000
142910.90999985 485819.78000069 11.69999981
142909.89000034 485820.82999992 6.40999985
142915.27000046 485821.27000046 12.64000034
142914.64999962 485821.04999924 12.09000015
142914.06000042 485820.72999954 11.85999966
142913.35000038 485820.81999969 10.18999958
142912.60999966 485821.00000000 8.11999989
142912.18000031 485820.13999939 9.85000038
142911.59000015 485819.80999947 9.67000008
142910.64000034 485820.63999939 5.17000008
142915.35000038 485823.88999939 1.54999995
142915.02000046 485822.52000046 5.09999990
142914.05000019 485823.54999924 0.00000000
142913.85999966 485821.75000000 5.15000010
142913.69999981 485819.87999916 10.55000019
142913.02000046 485819.87000084 9.19999981
142912.25000000 485820.12000084 6.84999990
142911.72000027 485819.59000015 7.38000011
142910.92000008 485819.93000031 4.71999979
142915.27999973 485822.73999977 1.33000004
142914.27999973 485821.34000015 3.65000010
142913.60999966 485821.25000000 2.56999993
142913.18000031 485820.35000038 4.46000004
142912.75000000 485819.43000031 6.42000008
142911.92000008 485819.87999916 3.31999993
142909.76000023 485832.40999985 4.76000023
142909.51000023 485832.22999954 4.92999983
142910.02000046 485832.15999985 5.25000000
142909.81000042 485832.00999832 4.78999996
142908.64000034 485831.02000046 11.81000042
142909.96000004 485831.85000038 5.28999996
142909.76000023 485831.70999908 4.65000010
142908.27000046 485830.45999908 13.05000019
142910.78999996 485832.04000092 6.63000011
142910.93999958 485832.18999863 4.38000011
142910.47000027 485831.84000015 4.38000011
142910.22000027 485831.64999962 4.51000023
142909.57999992 485831.06999969 10.60999966
142909.02000046 485830.62999916 12.00000000
142908.80000019 485830.46999931 11.75000000
142909.19999981 485830.87999916 5.44999981
142908.39000034 485830.30999947 3.18000007
142907.76000023 485829.72999954 9.56000042
142911.02999973 485831.98999977 10.59000015
142910.97000027 485832.04999924 4.44000006
142910.43999958 485831.63999939 5.21000004
142910.18999958 485831.45000076 5.36999989
142910.23999977 485831.51000023 4.55999994
142909.36999989 485830.75000000 10.64000034
142909.06999969 485830.51000023 11.60000038
142908.56000042 485830.12000084 12.30000019
142908.94999981 485830.52000046 6.07999992
142907.80000019 485829.54000092 13.14000034
142908.43999958 485830.19000053 2.80999994
142907.78999996 485829.59000015 9.55000019
142908.19999981 485830.01000023 2.85999990
142911.22999954 485831.69000053 10.23999977
142911.02999973 485831.61000061 6.17000008
142911.14000034 485831.71999931 4.55000019
142910.97999954 485831.62000084 3.46000004
142910.86999989 485831.56999969 1.38999999
142910.35999966 485831.12000084 5.57000017
142909.35999966 485830.22999954 13.60000038
142909.53999996 485830.42000008 10.75000000
142909.17000008 485830.10000038 12.96000004
142909.30000019 485830.23999977 10.84000015
142908.77000046 485829.81999969 11.85000038
142909.15999985 485830.21999931 5.67999983
142908.31000042 485829.42000008 15.35999966
142908.10000038 485829.27000046 14.98999977
142907.96000004 485829.25000000 9.77000046
142907.32999992 485828.73999977 12.28999996
142907.05999994 485828.53000069 12.93999958
142911.32999992 485831.47999954 10.14999962
142911.17000008 485831.44000053 5.55999994
142910.92000008 485831.25000000 5.69000006
142911.01000023 485831.34000015 4.34999990
142910.76000023 485831.14999962 4.50000000
142910.25000000 485830.76000023 5.07999992
142909.40999985 485830.04000092 10.64000034
142909.73999977 485830.37000084 5.51999998
142909.13000011 485829.80999947 11.36999989
142908.88000011 485829.62000084 11.64000034
142908.52000046 485829.31999969 13.55000019
142908.48999977 485829.36000061 10.25000000
142908.27999973 485829.20999908 9.84000015
142908.51000023 485829.45000076 6.11000013
142907.67000008 485828.71999931 12.07999992
142907.88000011 485828.93000031 8.64999962
142908.02000046 485829.13999939 2.44000006
142907.11000013 485828.27000046 13.60000038
142911.32999992 485831.17000008 5.65000010
142910.90999985 485830.87999916 4.76000023
142910.60999966 485830.63999939 5.65999985
142909.51000023 485829.64999962 15.28999996
142909.97000027 485830.18000031 4.40999985
142909.34000015 485829.60000038 10.64000034
142908.81999969 485829.13999939 15.13000011
142908.96000004 485829.28000069 12.92000008
142909.06000042 485829.37999916 11.30000019
142908.48999977 485828.93000031 12.89999962
142908.22999954 485828.72999954 13.32999992
142908.47000027 485828.97999954 9.42000008
142908.68999958 485829.20000076 5.82999992
142908.96000004 485829.46999931 1.53999996
142907.94000006 485828.48999977 14.31999969
142908.15999985 485828.71999931 10.68000031
142907.88000011 485828.50000000 11.43000031
142908.02999973 485828.64999962 8.96000004
142907.55000019 485828.22999954 12.89999962
142907.51999998 485828.26000023 9.52000046
142906.86000013 485827.71999931 12.71000004
142911.44999981 485831.15999985 6.57999992
142911.27000046 485831.04000092 5.71000004
142911.43999958 485831.20999908 3.15000010
142911.32999992 485831.15999985 1.25000000
142910.85000038 485830.73999977 4.84999990
142910.56999969 485830.52000046 5.46999979
142910.27999973 485830.29000092 6.23999977
142910.60000038 485830.61000061 1.41999996
142909.57999992 485829.63999939 13.43000031
142910.07999992 485830.14999962 5.73000002
142909.19999981 485829.31999969 15.73999977
142909.89000034 485830.02000046 4.96000004
142909.27999973 485829.45999908 10.90999985
142908.77000046 485829.01000023 15.09000015
142908.90999985 485829.14999962 12.93000031
142908.55000019 485828.84000015 14.94999981
142908.43000031 485828.79000092 13.07999992
142908.60000038 485828.95999908 10.39000034
142908.14999962 485828.56999969 13.80000019
142908.23999977 485828.64999962 12.44999981
142907.92000008 485828.38999939 13.89999962
142907.76999998 485828.29999924 12.48999977
142907.94000006 485828.47999954 9.67000008
142907.51000023 485828.10000038 12.84000015
142907.28000021 485827.93000031 12.77999973
142907.07000017 485827.79000092 12.30000019
142907.59000015 485828.32999992 3.41000009
142906.82000017 485827.59000015 12.67000008
142906.94000006 485827.87000084 2.23000002
142911.42000008 485830.53000069 12.76000023
142911.15999985 485830.32999992 13.13000011
142911.59000015 485830.77000046 6.69000006
142911.57999992 485830.81999969 3.38000011
142911.31999969 485830.62000084 3.70000005
142911.03999996 485830.39999962 4.30999994
142911.14000034 485830.50000000 2.74000001
142910.72000027 485830.13999939 5.48000002
142910.64999962 485830.12999916 2.92000008
142910.31000042 485829.85000038 4.38000011
142910.51000023 485830.05999947 1.25000000
142909.53999996 485829.12999916 12.76000023
142910.27000046 485829.87999916 1.26999998
142909.27999973 485828.92000008 13.26000023
142909.39999962 485829.04999924 11.26000023
142909.10000038 485828.80999947 12.35000038
142908.93999958 485828.70999908 11.10000038
142909.03999996 485828.80999947 9.60000038
142909.61999989 485829.40999985 0.16000000
142908.76000023 485828.57999992 10.32999992
142909.02000046 485828.86000061 6.05999994
142908.43999958 485828.31999969 11.71000004
142908.60999966 485828.51000023 8.78999996
142908.35999966 485828.30999947 9.10000038
142907.98999977 485827.98999977 11.34000015
142907.73000002 485827.79999924 11.65999985
142907.57999992 485827.70999908 10.27000046
142907.15999985 485827.34000015 13.47000027
142907.50000000 485827.76000023 3.51999998
142906.80000019 485827.10000038 11.52000046
142906.32000017 485826.73999977 11.73999977
142911.73999977 485830.52000046 13.59000015
142911.72000027 485830.69000053 3.38000011
142911.64000034 485830.67000008 1.08000004
142911.19999981 485830.28000069 4.09999990
142910.84000015 485829.97999954 6.00000000
142910.96000004 485830.10000038 4.15000010
142910.84000015 485830.04999924 2.18000007
142910.42000008 485829.68000031 5.11999989
142910.47999954 485829.73999977 4.13000011
142909.96000004 485829.35000038 4.78000021
142909.14999962 485828.57999992 13.93999958
142909.27000046 485828.70000076 12.06999969
142909.35999966 485828.79000092 10.59000015
142908.90999985 485828.45999908 10.30000019
142908.60000038 485828.20999908 11.43999958
142908.75000000 485828.36000061 8.97999954
142908.57999992 485828.25000000 7.96999979
142908.98999977 485828.69000053 1.07000005
142908.13000011 485827.86000061 11.44999981
142907.86000013 485827.64999962 11.93000031
142907.53999996 485827.37999916 13.52000046
142907.61000013 485827.45000076 12.39000034
142907.34999990 485827.26000023 12.67000008
142907.51999998 485827.44000053 9.76000023
142907.09999990 485827.05999947 12.97000027
142907.25000000 485827.21999931 10.34000015
142906.94999981 485826.97999954 11.46000004
142911.97999954 485830.30999947 12.50000000
142911.89999962 485830.35000038 6.76000023
142911.81000042 485830.38999939 0.92000002
142911.67000008 485830.30999947 -0.61000001
142910.89000034 485829.64999962 3.92000008
142911.03999996 485829.79999924 1.67999995
142909.81000042 485828.67000008 13.39000034
142910.14999962 485829.07999992 4.30999994
142910.32999992 485829.27000046 1.38999999
142909.44999981 485828.44000053 11.60000038
142909.53999996 485828.53000069 10.17000008
142909.75000000 485828.80999947 3.07999992
142909.93000031 485829.00000000 0.09000000
142909.06999969 485828.18000031 10.19999981
142909.13000011 485828.23999977 9.14000034
142909.39000034 485828.50000000 5.05999994
142908.68000031 485827.84000015 12.64000034
142908.81000042 485827.96999931 10.63000011
142908.88000011 485828.11000061 5.61000013
142909.03999996 485828.29000092 2.81999993
142908.63000011 485827.93000031 5.61000013
142908.35999966 485827.70999908 6.30000019
142908.65999985 485828.03000069 1.26999998
142907.92999983 485827.32999992 9.57999992
142907.42999983 485826.95000076 10.06999969
142906.40999985 485826.17000008 11.38000011
142906.53000021 485826.29999924 9.19999981
142906.34000015 485826.15999985 8.43999958
142906.13000011 485826.01000023 7.98999977
142912.02999973 485830.20000076 14.09000015
142911.82999992 485830.18000031 6.63999987
142911.15999985 485829.55999947 13.14999962
142911.85000038 485830.27000046 2.77999997
142911.94999981 485830.37000084 1.26999998
142911.39000034 485829.93000031 2.36999989
142911.03999996 485829.63999939 4.13999987
142910.03999996 485828.67000008 16.09000015
142910.82999992 485829.47999954 3.81999993
142909.53999996 485828.35000038 12.90999985
142910.09000015 485828.92000008 4.15999985
142909.39999962 485828.28000069 11.34000015
142909.82999992 485828.71999931 4.53000021
142909.27999973 485828.20999908 9.57999992
142909.72999954 485828.69000053 2.23000002
142909.85000038 485828.80999947 0.27000001
142908.98999977 485827.98999977 10.34000015
142909.31000042 485828.32999992 5.03999996
142908.93000031 485827.98999977 7.48000002
142909.10000038 485828.17000008 4.71000004
142909.21000004 485828.29000092 2.83999991
142908.73999977 485827.87000084 6.59999990
142908.77999973 485827.98999977 1.92999995
142908.82999992 485828.04000092 1.15999997
142908.06000042 485827.29000092 10.21000004
142908.30000019 485827.54999924 6.13000011
142907.59000015 485826.94000053 10.21000004
142907.30000019 485826.70999908 11.05000019
142907.86000013 485827.30999947 1.30999994
142907.09000015 485826.55999947 10.71000004
142906.57999992 485826.25000000 7.05999994
142912.14999962 485829.90999985 13.64000034
142911.93999958 485829.88999939 6.19000006
142911.26000023 485829.26000023 12.93999958
142911.93999958 485829.95000076 2.69000006
142911.81999969 485829.89999962 0.86000001
142910.77999973 485828.89999962 13.05000019
142911.30000019 485829.48999977 1.50999999
142910.10999966 485828.34000015 16.29000092
142910.92000008 485829.17000008 3.64000010
142910.82999992 485829.13999939 1.35000002
142910.57999992 485828.95000076 1.49000001
142909.60000038 485828.01000023 13.26000023
142910.18000031 485828.62000084 3.89000010
142909.47999954 485827.95999908 11.40999985
142909.53999996 485828.02000046 10.44999981
142909.32999992 485827.87000084 10.01000023
142909.19999981 485827.79999924 8.27000046
142909.43999958 485828.04999924 4.40000010
142908.98999977 485827.64999962 7.92000008
142909.23999977 485827.90999985 3.70000005
142908.84000015 485827.56999969 6.38000011
142909.17000008 485827.92000008 0.81000000
142908.53999996 485827.31999969 7.48999977
142908.61999989 485827.39999962 6.13999987
142908.15999985 485827.00000000 9.85999966
142908.69999981 485827.55999947 0.75000000
142908.44999981 485827.37000084 0.88999999
142907.57999992 485826.53000069 11.73999977
142907.67999983 485826.62999916 10.14000034
142907.42999983 485826.44000053 10.27000046
142907.19999981 485826.27000046 10.28999996
142907.40000010 485826.47999954 6.67000008
142906.98999977 485826.12000084 9.78999996
142906.82000017 485826.01000023 8.64999962
142906.63000011 485825.88999939 7.67000008
142911.97000027 485829.47999954 12.48999977
142911.73999977 485829.30999947 12.51000023
142911.88000011 485829.51000023 6.86000013
142911.14999962 485828.82999992 14.32999992
142911.25000000 485828.93000031 12.84000015
142911.93999958 485829.63999939 2.28999996
142911.01000023 485828.75000000 12.94999981
142911.76000023 485829.53000069 1.37000000
142911.89999962 485829.67000008 -0.75999999
142910.57999992 485828.37000084 15.96000004
142911.47999954 485829.29999924 2.00000000
142910.36999989 485828.21999931 15.60999966
142910.47000027 485828.31999969 14.07999992
142911.14999962 485829.03000069 3.45000005
142911.30000019 485829.18000031 1.13999999
142910.14999962 485828.05999947 15.39000034
142909.82999992 485827.79999924 16.78000069
142909.94999981 485827.93000031 14.78999996
142909.88000011 485827.92000008 12.21000004
142910.40999985 485828.46999931 3.72000003
142909.46000004 485827.54999924 15.25000000
142909.80000019 485827.89999962 9.78999996
142910.05000019 485828.15999985 5.76000023
142909.22999954 485827.37999916 15.22999954
142909.61999989 485827.79000092 8.76000023
142909.50000000 485827.72999954 6.90999985
142909.69999981 485827.94000053 3.71000004
142909.23999977 485827.53000069 7.26000023
142909.68000031 485827.98999977 -0.03000000
142909.06000042 485827.40999985 6.36000013
142909.34000015 485827.70999908 1.65999997
142909.39999962 485827.77000046 0.63999999
142909.17000008 485827.60000038 0.57999998
142908.34000015 485826.79999924 10.47000027
142908.39999962 485826.86000061 9.47000027
142908.17000008 485826.69000053 9.46000004
142907.92999983 485826.51000023 9.52000046
142907.59000015 485826.21999931 11.36999989
142907.69000006 485826.32999992 9.57999992
142907.61999989 485826.32999992 6.55999994
142907.13999987 485825.88999939 11.00000000
142907.09999990 485825.93000031 7.40999985
142912.15999985 485829.22999954 12.93000031
142912.31999969 485829.45000076 7.11000013
142911.72000027 485828.89999962 12.53999996
142912.36999989 485829.56999969 2.72000003
142911.26000023 485828.48999977 16.00000000
142911.22999954 485828.54000092 12.77000046
142912.02999973 485829.36000061 0.51999998
142912.11999989 485829.45000076 -0.85000002
142910.72000027 485828.07999992 17.04000092
142911.88000011 485829.27000046 -0.85000002
142911.43999958 485828.87999916 2.25999999
142911.63000011 485829.06999969 -0.62000000
142910.39999962 485827.87000084 14.84000015
142910.44999981 485827.93000031 13.97000027
142911.14000034 485828.63999939 3.21000004
142910.17000008 485827.70999908 14.72000027
142911.00000000 485828.55999947 1.66999996
142911.06000042 485828.62999916 0.67000002
142910.75000000 485828.37999916 1.78999996
142910.82999992 485828.45000076 0.57999998
142909.88000011 485827.54000092 11.82999992
142910.27000046 485827.94000053 5.65000010
142910.38000011 485828.05999947 3.93000007
142910.14999962 485827.88999939 3.72000003
142909.17000008 485826.94000053 15.82999992
142910.02000046 485827.81999969 2.01999998
142909.44999981 485827.29999924 7.36000013
142909.69999981 485827.55999947 3.28999996
142909.81000042 485827.68000031 1.39999998
142909.88000011 485827.75000000 0.34000000
142909.13000011 485827.03000069 8.77999973
142908.89000034 485826.85000038 8.85999966
142909.10999966 485827.07999992 5.19000006
142908.61999989 485826.64999962 9.35000038
142908.18000031 485826.31999969 8.89999962
142907.63000011 485825.87999916 10.27999973
142907.61000013 485825.94000053 6.32000017
142907.34999990 485825.73999977 6.80999994
142906.75000000 485825.25000000 9.13000011
142906.53000021 485825.09000015 8.80000019
142906.61000013 485825.18000031 7.32999992
142905.98999977 485824.64999962 10.19999981
142912.39999962 485829.28000069 12.60999966
142912.43000031 485829.37999916 8.63000011
142911.93999958 485828.94000053 12.48999977
142912.30000019 485829.30999947 7.07000017
142911.71000004 485828.77000046 12.43999958
142912.30000019 485829.37999916 3.47000003
142911.25000000 485828.37000084 15.78999996
142911.22000027 485828.39999962 12.60999966
142912.01000023 485829.21999931 0.50999999
142910.68000031 485827.90999985 17.43000031
142911.85999966 485829.12999916 -0.86000001
142911.60999966 485828.94000053 -0.63999999
142910.39000034 485827.73999977 14.71000004
142911.05000019 485828.43000031 4.30000019
142910.72000027 485828.14999962 5.76000023
142910.97999954 485828.43000031 1.55999994
142910.06999969 485827.54000092 12.39000034
142910.81000042 485828.31999969 0.41999999
142909.69999981 485827.22999954 14.52999973
142910.06999969 485827.61000061 8.60000038
142910.39999962 485828.03000069 -0.70999998
142909.18000031 485826.81999969 15.43999958
142909.68000031 485827.35000038 7.17000008
142910.02999973 485827.71999931 1.36000001
142909.35999966 485827.07999992 8.56999969
142909.35000038 485827.13999939 4.86999989
142908.88000011 485826.71999931 8.68999958
142908.59000015 485826.48999977 9.64000034
142908.68999958 485826.59000015 7.92999983
142908.40999985 485826.37000084 8.76000023
142908.15999985 485826.18000031 8.90999985
142907.59000015 485825.79000092 6.48000002
142906.98000002 485825.29000092 8.92000008
142906.76000023 485825.13999939 8.59000015
142906.90999985 485825.29000092 5.92999983
142906.51999998 485824.95999908 8.64000034
142906.59000015 485825.03000069 7.38000011
142906.17000008 485824.64999962 10.80000019
142912.56000042 485829.07999992 8.21000004
142912.23999977 485828.81999969 9.46000004
142912.32999992 485828.90999985 8.03999996
142911.61999989 485828.23999977 15.30000019
142912.17000008 485828.80999947 6.88999987
142911.40999985 485828.10000038 14.85000038
142911.84000015 485828.54000092 8.22999954
142911.35000038 485828.10000038 12.21000004
142910.84000015 485827.63999939 16.43000031
142911.86999989 485828.70999908 0.40000001
142911.69999981 485828.60000038 -0.58999997
142910.31999969 485827.22999954 17.35000038
142910.50000000 485827.42000008 14.47000027
142911.22000027 485828.17000008 3.10999990
142911.09000015 485828.10000038 1.44000006
142909.89999962 485826.93000031 16.70999908
142910.03999996 485827.07999992 14.34000015
142910.71000004 485827.78000069 3.59999990
142909.78999996 485826.88999939 14.64000034
142910.22000027 485827.32999992 7.80999994
142909.48999977 485826.63999939 15.81000042
142909.56000042 485826.70999908 14.68999958
142909.96000004 485827.13999939 8.02999973
142910.02999973 485827.20999908 6.94999981
142910.44999981 485827.65999985 -0.02000000
142909.81000042 485827.04999924 6.69000006
142909.77999973 485827.09000015 3.18000007
142909.86999989 485827.19000053 1.73000002
142909.44999981 485826.81999969 4.73999977
142908.97000027 485826.37000084 8.92000008
142908.42000008 485825.94000053 10.25000000
142908.26000023 485825.84000015 8.94999981
142907.88999987 485825.52000046 11.27000046
142907.94000006 485825.65999985 6.13999987
142907.09999990 485824.98999977 8.48999977
142907.19999981 485825.10000038 6.65000010
142906.55999994 485824.54999924 9.89000034
142912.63000011 485828.90999985 9.64999962
142912.43000031 485828.77000046 9.02999973
142912.27000046 485828.68000031 7.86000013
142912.10999966 485828.56999969 6.80000019
142911.30000019 485827.79999924 15.50000000
142911.52999973 485828.03000069 12.09000015
142912.03999996 485828.63999939 0.54000002
142911.81000042 485828.46999931 0.30000001
142910.75000000 485827.43000031 13.30000019
142910.92000008 485827.61000061 10.60000038
142910.32999992 485827.05999947 16.22999954
142910.46000004 485827.20000076 14.14000034
142911.15999985 485827.94000053 2.93000007
142910.06000042 485826.85000038 16.86000061
142910.76000023 485827.57999992 5.59000015
142910.89999962 485827.72999954 3.38000011
142911.02000046 485827.86000061 1.40999997
142910.39999962 485827.27000046 7.61000013
142909.72000027 485826.62999916 14.76000023
142910.19999981 485827.13999939 6.94000006
142910.64000034 485827.60000038 -0.16000000
142909.47999954 485826.45000076 14.88000011
142910.44999981 485827.47999954 -1.09000003
142909.23999977 485826.27000046 15.02999973
142909.84000015 485826.90999985 4.94999981
142910.00000000 485827.07999992 2.35999990
142909.07999992 485826.32999992 5.73999977
142908.56000042 485825.84000015 10.64999962
142909.06000042 485826.37999916 2.00000000
142908.30000019 485825.70999908 7.03000021
142907.86999989 485825.40999985 6.13999987
142907.42999983 485825.00000000 9.94999981
142907.63000011 485825.22999954 6.28000021
142907.28000021 485824.93000031 8.27000046
142907.13999987 485824.85000038 6.63999987
142906.73000002 485824.48999977 9.76000023
142906.21999979 485824.09000015 10.53999996
142906.59999990 485824.51000023 3.28999996
142912.67000008 485828.38999939 16.06999969
142912.27999973 485828.26000023 7.69999981
142911.61999989 485827.64999962 14.21000004
142912.07999992 485828.12000084 7.19999981
142911.40999985 485827.48999977 13.89000034
142911.52999973 485827.62000084 12.00000000
142911.86999989 485827.96999931 6.75000000
142911.10000038 485827.23999977 15.14999962
142911.31999969 485827.46999931 11.71000004
142910.72999954 485826.92000008 17.27000046
142911.81000042 485828.04999924 0.15000001
142911.61999989 485827.92000008 -0.55000001
142910.28999996 485826.59000015 16.95999908
142911.15999985 485827.51000023 2.97000003
142910.14999962 485826.53000069 15.34000015
142910.68000031 485827.07999992 6.88000011
142910.39999962 485826.86000061 7.51999998
142910.47000027 485826.93000031 6.44999981
142910.75000000 485827.22999954 1.73000002
142910.88000011 485827.36000061 -0.30000001
142909.43000031 485826.12999916 7.84999990
142909.48999977 485826.19000053 6.82999992
142909.34000015 485826.10000038 5.44000006
142909.55000019 485826.32999992 1.76999998
142908.98999977 485825.80999947 7.30000019
142908.30000019 485825.13999939 15.21000004
142908.27000046 485825.18000031 11.67000008
142908.75000000 485825.70000076 3.29999995
142908.21000004 485825.20000076 8.52000046
142908.35000038 485825.35000038 6.07000017
142907.86000013 485824.96999931 6.34000015
142907.61000013 485824.78000069 6.55999994
142907.17999983 485824.38999939 10.17000008
142907.23999977 485824.45000076 9.10999966
142907.07000017 485824.35000038 7.78999996
142907.15000010 485824.45000076 6.21999979
142906.55000019 485823.95000076 8.72999954
142912.52999973 485828.29999924 8.31000042
142912.31999969 485828.14999962 7.90999985
142912.60999966 485828.45999908 3.46000004
142912.14000034 485828.03000069 7.07999992
142911.92000008 485827.87999916 6.69999981
142910.97000027 485826.95000076 17.93000031
142911.38000011 485827.37999916 11.56999969
142910.81000042 485826.85000038 16.82999992
142910.89000034 485826.93000031 15.52999973
142911.85999966 485827.95999908 0.19000000
142910.81000042 485826.92000008 13.14999962
142911.22999954 485827.36000061 6.44000006
142911.36999989 485827.51000023 4.19999981
142911.56000042 485827.71999931 1.08000004
142911.65999985 485827.81999969 -0.47000000
142910.34000015 485826.50000000 16.86000061
142910.46000004 485826.62999916 14.93000031
142910.56999969 485826.72999954 13.27000046
142911.21000004 485827.42000008 2.89000010
142910.22000027 485826.44000053 15.15999985
142910.75000000 485827.00000000 6.57000017
142910.44999981 485826.76000023 7.53000021
142910.81000042 485827.14999962 1.53999996
142910.93000031 485827.27000046 -0.38999999
142909.06000042 485825.56999969 15.10000038
142909.48999977 485826.03000069 7.73999977
142909.56999969 485826.12000084 6.36999989
142909.39000034 485826.01000023 5.38999987
142909.60999966 485826.23999977 1.70000005
142908.53999996 485825.15999985 16.11000061
142908.32999992 485825.01000023 15.64999962
142908.32999992 485825.10000038 11.44999981
142908.72999954 485825.53000069 4.48999977
142908.81000042 485825.61000061 3.09999990
142908.14000034 485824.96999931 10.68999958
142908.39999962 485825.25000000 6.01999998
142907.75000000 485824.70000076 9.30000019
142907.67000008 485824.70000076 6.32999992
142907.38999987 485824.46999931 7.19999981
142907.63999987 485824.75000000 2.56999993
142907.15999985 485824.29999924 7.13999987
142906.84000015 485824.03000069 8.68999958
142907.15999985 485824.37999916 2.72000003
142906.51000023 485823.75000000 10.40999985
142906.23000002 485823.53000069 11.27000046
142913.03999996 485828.10000038 16.70999908
142912.97999954 485828.11000061 14.11999989
142912.56000042 485827.73999977 16.94000053
142912.67000008 485827.85000038 15.31000042
142912.34000015 485827.57999992 16.70000076
142912.14000034 485827.44000053 16.29999924
142911.88000011 485827.23999977 16.59000015
142912.84000015 485828.23999977 1.86000001
142911.65999985 485827.06999969 16.52000046
142912.53999996 485828.06999969 -0.92000002
142911.14999962 485826.68000031 17.22999954
142911.39000034 485826.93000031 13.47999954
142911.88000011 485827.44000053 5.76999998
142910.90999985 485826.48999977 17.37999916
142911.00000000 485826.59000015 15.90999985
142911.19999981 485826.79999924 12.72000027
142911.31000042 485826.90999985 11.02999973
142911.50000000 485827.19000053 4.15000010
142911.75000000 485827.45999908 0.11000000
142910.44999981 485826.14999962 17.32999992
142911.17000008 485826.90999985 5.65000010
142911.35000038 485827.11000061 2.69000006
142911.53999996 485827.30999947 -0.41000000
142910.39999962 485826.17000008 14.28999996
142910.93000031 485826.73999977 5.61999989
142910.18000031 485826.01000023 14.15999985
142911.06999969 485826.95999908 -0.51999998
142909.93999958 485825.82999992 14.18999958
142910.55000019 485826.47999954 4.13000011
142910.48999977 485826.48999977 1.04999995
142909.63000011 485825.71999931 7.53999996
142909.73999977 485825.84000015 5.73000002
142908.90999985 485825.02000046 15.93000031
142909.73999977 485825.92000008 1.54999995
142908.72000027 485824.88999939 15.14000034
142908.84000015 485825.02000046 13.14999962
142908.97000027 485825.17000008 10.73999977
142908.52000046 485824.76000023 14.57999992
142908.73999977 485824.98999977 10.84000015
142909.17000008 485825.45999908 3.19000006
142908.27999973 485824.56999969 14.77000046
142908.77999973 485825.12000084 5.90000010
142908.51000023 485824.89999962 6.51000023
142908.02999973 485824.46999931 10.71000004
142907.92999983 485824.44000053 8.31999969
142907.65999985 485824.21999931 8.94999981
142907.26999998 485823.87000084 11.78999996
142907.40999985 485824.03000069 9.18999958
142907.17000008 485823.85000038 9.22999954
142907.53000021 485824.25000000 2.51999998
142906.94999981 485823.68000031 9.02999973
142906.57000017 485823.35000038 11.80000019
142906.71000004 485823.50000000 9.13000011
142906.32000017 485823.15999985 12.05000019
142906.17000008 485823.06999969 10.47000027
142913.14999962 485827.93000031 16.94000053
142912.81000042 485827.70999908 15.14000034
142912.50000000 485827.45999908 16.18000031
142913.07999992 485828.13999939 3.79999995
142912.85000038 485827.95999908 3.67000008
142911.80000019 485826.93000031 16.15999985
142912.61999989 485827.79999924 3.44000006
142911.47000027 485826.64999962 17.86000061
142911.60000038 485826.79000092 15.82999992
142912.64999962 485827.89999962 -0.68000001
142911.26000023 485826.50000000 17.51000023
142912.02000046 485827.29999924 5.46999979
142912.38000011 485827.68000031 -0.17000000
142911.27999973 485826.59000015 13.52999973
142911.34000015 485826.65999985 12.47000027
142911.81000042 485827.14999962 5.09000015
142910.90999985 485826.28000069 15.60999966
142911.00000000 485826.37000084 14.14000034
142911.59000015 485826.98999977 4.80999994
142910.64999962 485826.06999969 16.15999985
142911.32999992 485826.79000092 5.13000011
142911.64999962 485827.12999916 0.02000000
142910.48999977 485825.97999954 14.89999962
142911.26000023 485826.79000092 2.44000006
142911.34000015 485826.87999916 1.05999994
142911.19999981 485826.80999947 -0.56999999
142910.88000011 485826.54000092 0.67000002
142910.50000000 485826.20999908 3.06999993
142910.17000008 485825.93000031 4.57999992
142909.88000011 485825.70000076 5.42000008
142910.07999992 485825.92000008 2.01999998
142910.21000004 485826.04999924 -0.10000000
142909.10000038 485824.94000053 14.78999996
142909.43000031 485825.29000092 9.15999985
142909.56000042 485825.43000031 6.92999983
142908.86999989 485824.76000023 14.80000019
142909.14000034 485825.04999924 10.11999989
142909.15999985 485825.14999962 5.59999990
142908.65999985 485824.69000053 10.21000004
142908.89999962 485824.95000076 5.98999977
142908.42000008 485824.50000000 10.39000034
142908.56000042 485824.67000008 7.76000023
142908.92000008 485825.04999924 1.47000003
142908.31000042 485824.46999931 8.10000038
142908.06999969 485824.29000092 8.18000031
142908.13000011 485824.35000038 7.11999989
142907.65999985 485823.92000008 11.28999996
142907.98999977 485824.29000092 5.21999979
142908.09000015 485824.39999962 3.33999991
142907.42000008 485823.73999977 11.44999981
142907.92000008 485824.29000092 2.18000007
142907.26999998 485823.65999985 9.78999996
142907.65999985 485824.09000015 2.50000000
142906.73999977 485823.23999977 10.92000008
142906.30999994 485822.92000008 10.31999969
142913.14000034 485827.62999916 15.84000015
142913.27000046 485827.77000046 13.86999989
142912.93000031 485827.47999954 15.53999996
142912.73999977 485827.35000038 14.89000034
142912.47999954 485827.14999962 15.26000023
142912.39000034 485827.12999916 13.03999996
142913.06999969 485827.82999992 2.68000007
142911.97000027 485826.75000000 15.92000008
142912.84000015 485827.67000008 2.45000005
142912.61999989 485827.51000023 2.21000004
142912.39000034 485827.34000015 2.01999998
142911.52000046 485826.48999977 12.01000023
142912.17000008 485827.18000031 1.75000000
142911.03999996 485826.05999947 15.93000031
142911.47000027 485826.51000023 9.06000042
142911.76000023 485826.80999947 4.48999977
142911.93000031 485827.00000000 1.62000000
142910.78999996 485825.86000061 16.23999977
142911.51000023 485826.62999916 4.61999989
142911.31999969 485826.50000000 3.91000009
142910.44999981 485825.64999962 14.26000023
142911.02000046 485826.26000023 4.84999990
142911.14000034 485826.38999939 2.82999992
142910.77999973 485826.07999992 4.86999989
142911.05000019 485826.36000061 0.41999999
142909.96000004 485825.27000046 14.65999985
142910.56000042 485825.90999985 4.59000015
142910.51000023 485825.94000053 1.35000002
142909.51000023 485824.94000053 14.32999992
142909.77999973 485825.22999954 9.81000042
142910.22999954 485825.71999931 2.01999998
142909.35999966 485824.85000038 12.90999985
142909.57999992 485825.09000015 9.17000008
142908.97999954 485824.52000046 15.42000008
142909.28999996 485824.85000038 10.13000011
142909.56999969 485825.15999985 5.28999996
142909.22999954 485824.87000084 7.01999998
142909.14999962 485824.86000061 4.30999994
142908.72000027 485824.47999954 7.63000011
142908.09000015 485823.87000084 14.72000027
142908.59000015 485824.40999985 5.75000000
142908.57999992 485824.48999977 1.61000001
142908.02000046 485823.95999908 7.46999979
142908.09000015 485824.03000069 6.17999983
142908.32999992 485824.29999924 1.73000002
142907.57999992 485823.54999924 11.31000042
142907.38000011 485823.40999985 10.67000008
142907.15000010 485823.23999977 10.59000015
142907.50000000 485823.62999916 3.94000006
142907.11000013 485823.28000069 6.84000015
142906.71000004 485822.92000008 9.93000031
142906.48000002 485822.75000000 9.82999992
142906.21000004 485822.54000092 10.50000000
142913.05000019 485827.37999916 17.50000000
142912.97000027 485827.35000038 15.31000042
142912.75000000 485827.20000076 15.00000000
142912.85000038 485827.29999924 13.56999969
142912.52999973 485827.03000069 14.90999985
142912.64000034 485827.14999962 13.21000004
142912.42000008 485826.98999977 13.06999969
142911.90999985 485826.52000046 17.25000000
142912.18999958 485826.81999969 12.81999969
142912.55000019 485827.28000069 3.52999997
142911.82999992 485826.57999992 11.32999992
142911.64999962 485826.45999908 10.36999989
142911.57999992 485826.45999908 7.65000010
142911.77999973 485826.68000031 4.46999979
142910.97999954 485825.89999962 13.52999973
142911.50000000 485826.45999908 5.11000013
142910.56000042 485825.52000046 16.70000076
142911.36999989 485826.38999939 3.42000008
142910.27999973 485825.29000092 17.48999977
142911.14999962 485826.22999954 3.05999994
142910.15999985 485825.23999977 15.61999989
142910.78999996 485825.93000031 5.01000023
142910.86999989 485826.01000023 3.72000003
142909.92000008 485825.05999947 15.64999962
142910.01000023 485825.14999962 14.22999954
142910.60000038 485825.79000092 4.32999992
142910.02999973 485825.26000023 9.88000011
142910.31999969 485825.57999992 4.92000008
142909.56000042 485824.81999969 13.89999962
142909.53999996 485824.87999916 10.31999969
142909.84000015 485825.20999908 5.11000013
142909.93000031 485825.29999924 3.55999994
142909.09000015 485824.46999931 14.02000046
142909.51000023 485824.93000031 6.73000002
142909.60000038 485825.02000046 5.19000006
142908.85000038 485824.29000092 14.01000023
142908.52999973 485824.02000046 15.60999966
142908.34000015 485823.88999939 14.85999966
142908.89000034 485824.48999977 5.07000017
142908.60999966 485824.27000046 5.84000015
142908.68999958 485824.37000084 4.23999977
142908.11999989 485823.80999947 10.35000038
142908.36999989 485824.09000015 5.86000013
142908.02000046 485823.78000069 8.00000000
142908.10999966 485823.87999916 6.30999994
142907.69999981 485823.52000046 9.42000008
142907.86000013 485823.70000076 6.44999981
142907.42999983 485823.29999924 10.14000034
142907.23999977 485823.17000008 9.31999969
142907.55999994 485823.54000092 3.13000011
142906.65000010 485822.69000053 11.50000000
142906.48999977 485822.60000038 10.02000046
142913.56999969 485827.37999916 15.22000027
142913.18000031 485827.04000092 17.54000092
142912.97999954 485826.89999962 17.15999985
142913.14000034 485827.06999969 14.65999985
142912.93000031 485826.90999985 14.42000008
142912.48999977 485826.52000046 17.53000069
142912.31000042 485826.39999962 16.79000092
142912.39000034 485826.47999954 15.52000046
142912.14000034 485826.29000092 15.78999996
142912.27000046 485826.43000031 13.68000031
142911.85999966 485826.05999947 16.57999992
142912.10999966 485826.32999992 12.56000042
142911.56000042 485825.81999969 17.64999962
142912.01000023 485826.29999924 10.46000004
142912.46000004 485826.78000069 3.27999997
142911.56999969 485825.90999985 13.65999985
142911.68000031 485826.03000069 11.89000034
142912.10999966 485826.48999977 5.00000000
142911.34000015 485825.72999954 13.77000046
142911.69999981 485826.12000084 7.92000008
142911.11999989 485825.56999969 13.50000000
142911.44999981 485825.92000008 8.17000008
142911.42000008 485825.96999931 4.71000004
142911.56000042 485826.12000084 2.45000005
142911.69999981 485826.27000046 0.13000000
142910.43000031 485824.97999954 17.15999985
142911.31000042 485825.93000031 2.64000010
142911.39999962 485826.02000046 1.14999998
142910.67000008 485825.31999969 9.22000027
142911.14999962 485825.82999992 1.33000004
142911.23999977 485825.94000053 -0.28000000
142910.21000004 485824.88999939 13.14999962
142910.42000008 485825.12999916 9.51000023
142909.73999977 485824.45999908 17.13999939
142909.93000031 485824.67000008 13.89000034
142910.47000027 485825.26000023 4.71999979
142909.65999985 485824.45999908 14.47999954
142910.17000008 485825.02000046 5.67000008
142909.72999954 485824.61000061 9.25000000
142909.92000008 485824.81999969 5.88000011
142910.03999996 485824.95000076 3.86999989
142909.80000019 485824.77000046 3.94000006
142909.38000011 485824.38999939 7.07999992
142909.56000042 485824.57999992 4.00000000
142908.68000031 485823.70000076 15.32999992
142909.31000042 485824.39999962 4.03000021
142909.50000000 485824.60000038 0.79000002
142908.47000027 485823.54999924 14.93999958
142908.86999989 485824.00000000 7.73000002
142909.06999969 485824.20999908 4.21999979
142909.23999977 485824.40999985 1.04999995
142908.61999989 485823.79999924 8.09000015
142908.81000042 485824.01000023 4.53999996
142908.32999992 485823.55999947 9.05000019
142908.71000004 485823.98999977 1.91999996
142908.22000027 485823.53000069 6.61999989
142908.47000027 485823.80999947 1.96000004
142907.90999985 485823.27000046 8.03999996
142908.00000000 485823.37000084 6.30999994
142908.22000027 485823.62000084 2.16000009
142907.46999979 485822.87000084 11.81999969
142907.59000015 485822.98999977 9.67000008
142907.21000004 485822.65999985 12.39000034
142907.32999992 485822.79999924 10.02999973
142907.30000019 485822.85000038 6.15000010
142913.52999973 485827.05999947 17.73999977
142913.27000046 485826.90999985 14.80000019
142913.00000000 485826.70000076 15.31000042
142912.77000046 485826.53000069 15.31000042
142912.35999966 485826.17000008 17.96999931
142912.56999969 485826.39999962 14.64999962
142912.35000038 485826.22999954 14.53999996
142913.06000042 485826.97999954 3.45000005
142912.06999969 485826.00000000 15.32999992
142912.34000015 485826.29999924 10.97000027
142912.81000042 485826.79000092 3.66000009
142912.59000015 485826.62999916 3.40000010
142911.52999973 485825.57999992 16.47999954
142911.72000027 485825.78000069 13.47000027
142912.22999954 485826.32999992 5.21999979
142911.73999977 485825.87000084 9.36999989
142911.31999969 485825.50000000 12.38000011
142911.56000042 485825.76000023 8.42000008
142910.72999954 485824.94000053 18.19000053
142911.31999969 485825.57999992 8.52999973
142910.61999989 485824.88999939 16.26000023
142910.92000008 485825.22999954 11.11999989
142911.42000008 485825.76000023 2.96000004
142910.27999973 485824.60000038 18.04999924
142910.60000038 485824.95000076 12.68000031
142910.82999992 485825.20000076 8.85000038
142911.09000015 485825.48999977 4.38000011
142910.15999985 485824.55999947 16.09000015
142910.34000015 485824.75000000 13.14000034
142910.57999992 485825.01000023 9.03999996
142910.88000011 485825.34000015 3.96000004
142911.11999989 485825.60000038 -0.10000000
142910.06000042 485824.53000069 13.84000015
142910.31000042 485824.79000092 9.69999981
142910.77999973 485825.30999947 1.65999997
142910.88000011 485825.40999985 -0.02000000
142909.76000023 485824.28000069 14.97999954
142909.84000015 485824.36000061 13.69999981
142910.35000038 485824.92000008 4.84999990
142909.40999985 485823.96999931 17.03000069
142910.05000019 485824.67000008 5.90999985
142910.38000011 485825.03000069 0.23000000
142909.78999996 485824.46999931 6.38999987
142910.13000011 485824.85000038 0.34999999
142909.50000000 485824.22999954 7.34000015
142909.26000023 485824.05999947 7.25000000
142908.96000004 485823.79999924 8.47000027
142909.01000023 485823.86000061 7.50000000
142908.96000004 485823.88999939 4.19999981
142909.14999962 485824.10000038 0.75000000
142908.52999973 485823.50000000 7.69000006
142908.85000038 485823.86000061 1.79999995
142908.63000011 485823.70000076 1.38999999
142907.86000013 485823.01000023 6.94999981
142906.90999985 485822.20000076 11.73999977
142906.69000006 485822.04000092 11.31000042
142913.60000038 485826.73999977 15.71000004
142913.03999996 485826.29999924 17.03000069
142912.90999985 485826.22999954 15.48999977
142913.38000011 485826.71999931 8.38000011
142913.64000034 485827.00000000 4.28999996
142912.52999973 485825.89999962 17.76000023
142913.40999985 485826.82999992 4.11999989
142912.77999973 485826.29999924 6.61000013
142912.98999977 485826.52000046 3.36999989
142911.92000008 485825.45999908 16.52000046
142912.59000015 485826.18000031 5.84999990
142912.67000008 485826.34000015 0.68000001
142911.47000027 485825.12999916 16.17000008
142911.85999966 485825.54999924 9.92000008
142912.44999981 485826.17000008 0.47000000
142911.81999969 485825.57999992 6.73999977
142911.92000008 485825.69000053 5.07999992
142910.89000034 485824.65999985 18.06999969
142911.23999977 485825.03000069 12.43000031
142911.35000038 485825.14999962 10.56999969
142911.90999985 485825.76000023 1.34000003
142910.97999954 485824.82999992 12.81999969
142910.47999954 485824.37000084 17.27000046
142910.61999989 485824.51000023 14.97000027
142911.31999969 485825.27000046 3.24000001
142910.22000027 485824.15999985 17.72999954
142910.52000046 485824.47999954 12.77999973
142911.02999973 485825.04000092 4.01000023
142911.17000008 485825.19000053 1.75000000
142910.78999996 485824.86000061 4.09000015
142911.03999996 485825.12999916 -0.12000000
142910.22000027 485824.31999969 9.84000015
142910.59000015 485824.71999931 3.41000009
142909.60999966 485823.71999931 16.39999962
142909.93000031 485824.07999992 10.84000015
142910.26000023 485824.44000053 5.01999998
142909.35999966 485823.54000092 16.64999962
142909.73999977 485823.95000076 10.05000019
142910.09000015 485824.34000015 3.90000010
142909.43999958 485823.70000076 11.17000008
142909.57999992 485823.86000061 8.68000031
142909.06999969 485823.37999916 13.51000023
142909.60000038 485823.96999931 4.07999992
142909.77999973 485824.15999985 0.97000003
142908.84000015 485823.20000076 13.56000042
142909.50000000 485823.94000053 1.57000005
142908.93000031 485823.38999939 7.65000010
142908.69999981 485823.21999931 7.48000002
142909.01000023 485823.55999947 1.80999994
142908.53999996 485823.12999916 6.05999994
142908.63000011 485823.22999954 4.34000015
142908.72999954 485823.34000015 2.63000011
142908.82999992 485823.45000076 0.70999998
142908.03999996 485822.73999977 6.55000019
142908.28999996 485823.03000069 1.79999995
142907.11999989 485821.96999931 10.60999966
142907.21999979 485822.07999992 8.81000042
142913.78999996 485826.82999992 15.82999992
142913.02999973 485826.23999977 16.79999924
142912.85000038 485826.12000084 15.93999958
142913.09000015 485826.37999916 12.23999977
142912.50000000 485825.81999969 17.75000000
142912.63000011 485825.95999908 15.76000023
142912.90999985 485826.26000023 11.39999962
142913.38000011 485826.76000023 4.09999990
142912.55000019 485825.95000076 13.34000015
142912.73999977 485826.22999954 6.61000013
142911.88000011 485825.37999916 16.59000015
142912.15999985 485825.68000031 12.21000004
142912.56000042 485826.12000084 5.71000004
142912.86999989 485826.44000053 0.91000003
142912.03999996 485825.62999916 10.30000019
142912.64000034 485826.28000069 0.68000001
142911.77999973 485825.50000000 6.82000017
142910.85999966 485824.57999992 18.11000061
142911.31000042 485825.06999969 10.69999981
142910.72999954 485824.52000046 16.46999931
142910.78999996 485824.57999992 15.57999992
142911.50000000 485825.36000061 3.59999990
142910.47000027 485824.30999947 17.00000000
142911.28999996 485825.20999908 3.22000003
142910.17000008 485824.05999947 18.09000015
142911.13000011 485825.12000084 1.76999998
142910.76000023 485824.79000092 4.07000017
142910.88000011 485824.93000031 2.00000000
142910.18000031 485824.23999977 9.93999958
142910.57999992 485824.68000031 2.99000001
142909.59000015 485823.67000008 16.09000015
142909.89000034 485824.00000000 10.94999981
142910.22999954 485824.37000084 5.00000000
142910.06000042 485824.27000046 3.85999990
142909.40999985 485823.62999916 11.21000004
142909.60000038 485823.85000038 7.71000004
142909.03999996 485823.30999947 13.50000000
142909.27999973 485823.57999992 9.18000031
142909.56000042 485823.88999939 4.15000010
142909.34000015 485823.72999954 3.95000005
142908.73999977 485823.13999939 10.56999969
142908.89000034 485823.30999947 7.82000017
142908.65999985 485823.14999962 7.55000019
142908.75000000 485823.23999977 5.98000002
142908.47000027 485823.02000046 6.69000006
142908.59000015 485823.15999985 4.42000008
142908.68999958 485823.27000046 2.64000010
142908.06999969 485822.64999962 9.92000008
142908.28999996 485822.89999962 5.71999979
142908.55000019 485823.19000053 0.89999998
142907.92999983 485822.57999992 8.06999969
142908.01000023 485822.67000008 6.59999990
142907.71999979 485822.44000053 7.55999994
142907.40999985 485822.18000031 8.93000031
142907.09000015 485821.89999962 10.69999981
142907.17000008 485821.98999977 9.11999989
142906.67999983 485821.61000061 9.55000019
142913.68000031 485826.36000061 13.02000046
142913.13000011 485825.84000015 17.85000038
142913.19999981 485825.92000008 16.78000069
142913.27000046 485826.05999947 12.18999958
142913.52000046 485826.32999992 8.30000019
142912.81999969 485825.65999985 15.47999954
142912.90999985 485825.75000000 14.13000011
142913.31000042 485826.18000031 7.86999989
142912.69999981 485825.60000038 13.75000000
142913.10999966 485826.04000092 7.26999998
142913.26000023 485826.28000069 1.17999995
142912.38000011 485825.40999985 11.42000008
142912.17000008 485825.26000023 10.92000008
142912.17000008 485825.34000015 7.17999983
142912.27000046 485825.45000076 5.50000000
142912.52000046 485825.71999931 1.47000003
142911.90999985 485825.13999939 7.51000023
142912.27999973 485825.54000092 1.40999997
142912.39000034 485825.64999962 -0.28999999
142911.09000015 485824.31999969 17.27000046
142911.25000000 485824.57999992 10.60999966
142910.98999977 485824.37000084 11.17000008
142910.44999981 485823.86000061 16.28000069
142910.75000000 485824.18000031 11.31000042
142910.15999985 485823.61000061 17.37999916
142910.51000023 485824.00000000 11.36999989
142910.27999973 485823.84000015 11.18999958
142910.82999992 485824.43000031 1.78999996
142910.06999969 485823.69000053 10.77000046
142910.42000008 485824.06999969 4.65999985
142909.72000027 485823.37999916 12.88000011
142910.14999962 485823.86000061 5.26999998
142910.35000038 485824.07999992 1.69000006
142909.42000008 485823.12999916 13.97000027
142909.90999985 485823.76000023 1.13000000
142909.48999977 485823.37000084 4.40000010
142909.27000046 485823.21999931 4.03000021
142908.76000023 485822.72999954 9.10999966
142908.55000019 485822.59000015 8.40999985
142908.18999958 485822.27000046 10.82999992
142908.31000042 485822.40999985 8.53999996
142907.30000019 485821.62000084 9.92000008
142907.03999996 485821.42000008 10.35999966
142914.07999992 485826.34000015 13.53999996
142913.60999966 485825.90999985 17.14999962
142913.89000034 485826.20999908 12.86999989
142913.36999989 485825.72999954 17.32999992
142913.90999985 485826.29999924 9.05000019
142913.44999981 485825.88999939 12.51000023
142912.90999985 485825.37999916 17.23999977
142913.01000023 485825.48999977 15.61999989
142912.88000011 485825.43000031 14.02999973
142913.30000019 485825.87000084 7.50000000
142913.43999958 485826.10000038 1.53999996
142912.03999996 485824.75000000 16.30999947
142912.18000031 485824.97999954 10.25000000
142912.72000027 485825.55999947 1.58000004
142912.11999989 485824.97999954 7.51999998
142912.50000000 485825.39999962 1.25000000
142912.59000015 485825.50000000 -0.33000001
142911.27000046 485824.13999939 17.62999916
142911.50000000 485824.38999939 13.88000011
