142956.44200134 485735.79600143 7.43800020
142957.76499939 485734.82400131 5.37200022
142958.17599869 485734.47700119 5.12500000
142957.82600021 485734.63899994 6.51100016
142957.59299850 485734.65599823 8.23600006
142957.64199829 485734.54899979 8.77799988
142957.68999863 485734.44800186 9.28600025
142958.21099854 485734.09199905 8.23600006
142957.98199844 485734.18000031 9.28699970
142956.46400070 485735.14599991 12.95499992
142957.34799957 485734.54399872 11.18400002
142958.25899887 485733.92200089 9.35299969
142956.37500000 485735.13899994 13.75599957
142957.69300079 485734.23699951 11.11499977
142958.35300064 485733.78599930 9.79300022
142957.03200150 485734.61299896 13.09700012
142957.09799957 485734.50199890 13.53499985
142956.79199982 485734.63999939 14.79899979
142957.26399994 485734.31499863 13.85499954
142957.34000015 485734.19800186 14.28199959
142960.49599838 485731.96400070 8.60299969
142962.66099930 485730.48100090 4.29799986
142959.65900040 485732.47000122 10.86200047
142960.69699860 485731.75699997 8.79500008
142961.86199951 485730.96100044 6.48500013
142958.62300110 485733.10900116 13.56499958
142961.02299881 485731.46100044 8.80200005
142963.12099838 485730.02000046 4.63800001
142958.81000137 485732.90900040 13.82400036
142959.24399948 485732.61000061 12.96100044
142959.77899933 485732.24100113 11.90100002
142958.88899994 485732.78699875 14.26299953
142959.76699829 485732.18299866 12.52299976
142959.78699875 485732.09799957 13.11100006
142959.67900085 485732.10400009 13.92300034
142959.54700089 485732.06100082 15.36600018
142959.92800140 485731.72900009 15.23099995
142961.57500076 485730.59300041 11.99400043
142962.83100128 485729.72900009 9.52999973
142963.55400085 485729.23100090 8.10799980
142964.20600128 485728.78199959 6.82800007
142961.10800171 485730.84099960 13.56400013
142964.83599854 485728.27199936 6.25400019
142960.08599854 485731.48200035 16.13100052
142960.95000076 485730.88500023 14.43799973
142965.09300232 485728.02899933 6.32499981
142960.10300064 485731.39500046 16.74799919
142960.90200043 485730.84399986 15.18700027
142965.29399872 485727.81399918 6.59499979
142960.18999863 485731.26899910 17.15099907
142960.96699905 485730.73500061 15.63700008
142960.15299988 485731.22900009 17.81599998
142963.46500015 485728.73299980 13.19200039
142955.32899857 485736.71400070 4.31400013
142957.25400162 485735.40800095 0.34700000
142955.63999939 485736.43199921 4.29799986
142955.86000061 485736.06600189 5.75099993
142955.21699905 485736.43000031 7.70100021
142955.60499954 485736.16699982 6.90999985
142956.75600052 485735.31000137 5.19600010
142955.10100174 485736.36700058 9.19499969
142955.67599869 485735.97499847 8.02000046
142957.05799866 485735.03400040 5.20599985
142957.48600006 485734.74200058 4.33099985
142955.94200134 485735.72800064 8.06099987
142956.36199951 485735.44100189 7.20499992
142957.20399857 485734.86800003 5.49300003
142957.51699829 485734.58499908 5.47800016
142957.49800110 485734.52500153 6.15799999
142957.76399994 485734.34299850 5.61600018
142956.91400146 485734.77899933 8.60700035
142956.97999954 485734.65900040 9.13599968
142957.20199966 485734.44100189 9.27600002
142956.94599915 485734.54700089 10.39700031
142957.23400116 485734.28400040 10.39599991
142957.62200165 485734.01900101 9.61800003
142957.98199844 485733.69800186 9.55500031
142957.17599869 485734.17599869 11.81000042
142958.47299957 485733.28900146 9.21100044
142957.15599823 485734.11999893 12.45800018
142957.97399902 485733.55899811 10.82199955
142956.75000000 485734.32600021 13.89500046
142958.03099823 485733.44900131 11.33500004
142960.67800140 485731.63699913 6.04600000
142961.12200165 485731.26399994 5.76999998
142962.00500107 485730.65800095 4.00699997
142957.08399963 485733.96500015 14.40799999
142961.48799896 485730.87599945 6.24399996
142960.44699860 485731.51300049 8.95199966
142961.65999985 485730.68400002 6.54799986
142962.47700119 485730.12199974 4.92299986
142958.29399872 485732.91899872 13.88300037
142960.53699875 485731.37700081 9.43099976
142958.93099976 485732.41500092 13.19499969
142959.52199936 485732.00899887 12.02600002
142958.81700134 485732.42100143 14.07100010
142960.83700180 485731.03100014 10.07400036
142959.01100159 485732.22200012 14.25599957
142959.64699936 485731.78599930 13.00100040
142960.72399902 485731.04299927 10.87100029
142959.45100021 485731.85199928 13.98999977
142959.49200058 485731.75600052 14.48900032
142962.89500046 485729.34000015 8.44699955
142964.05100250 485728.54299927 6.17500019
142961.48500061 485730.23900032 11.84099960
142962.71699905 485729.39100075 9.42300034
142964.25499725 485728.33200073 6.40100002
142960.50299835 485730.84700012 14.36999989
142961.44699860 485730.19700050 12.52000046
142960.06399918 485731.08200073 15.84000015
142962.77999878 485729.20800018 10.52400017
142964.57299805 485727.97200012 7.01000023
142960.66500092 485730.59799957 15.26500034
142961.25199890 485730.19300079 14.11499977
142962.79700089 485729.12800026 11.09599972
142964.44300079 485727.99200058 7.87500000
142960.06100082 485730.94799995 17.02199936
142960.80099869 485730.43899918 15.57699966
142960.77600098 485730.38899994 16.22400093
142962.87900162 485728.86700058 12.74499989
142963.43899918 485728.34000015 12.86499977
142956.57199860 485735.74399948 0.16100000
142954.73799896 485736.91999817 4.53599977
142956.83100128 485735.50299835 0.22100000
142955.29899979 485736.39799881 4.61299992
142957.38800049 485734.98300171 0.31999999
142957.42200089 485734.88299942 0.92699999
142955.50000000 485735.96900177 6.78999996
142958.33599854 485734.04299927 0.99699998
142954.77199936 485736.39500046 8.88500023
142955.84700012 485735.66400146 6.69199991
142955.08100128 485736.11600113 8.85900021
142955.61899948 485735.74900055 7.76100016
142956.69699860 485735.01599884 5.56699991
142957.23300171 485734.65100098 4.47100019
142955.43299866 485735.80599976 8.75199986
142955.92300034 485735.47200012 7.75500011
142957.33900070 485734.43600082 5.50799990
142956.95700073 485734.61999893 6.95800018
142957.07400131 485734.26200104 9.18099976
142957.60200119 485733.90000153 8.11299992
142956.80899811 485734.37500000 10.30099964
142957.82300186 485733.68199921 8.26099968
142955.97499847 485734.86800003 12.63099957
142956.80599976 485734.30199814 10.96500015
142956.72700119 485734.28499985 11.76099968
142955.96699905 485734.73400116 13.87899971
142957.75500107 485733.51200104 10.29699993
142958.01900101 485733.25899887 10.40699959
142958.42499924 485732.98099899 9.59500027
142960.23899841 485731.73999977 5.96700001
142956.38100052 485734.31000137 14.28699970
142957.00099945 485733.88499832 13.04699993
142958.23099899 485733.04299927 10.58899975
142956.31000137 485734.29299927 15.00399971
142957.04999924 485733.78599930 13.52499962
142959.82899857 485731.81399918 8.59500027
142960.97700119 485731.02899933 6.31099987
142959.91299820 485731.68300056 9.05200005
142961.95500183 485730.28499985 4.99300003
142960.24399948 485731.37899971 9.06400013
142960.42200089 485731.19199944 9.28299999
142961.76100159 485730.27599907 6.63199997
142958.68799973 485732.30699921 13.38500023
142959.36199951 485731.84499931 12.05000019
142960.15700150 485731.29999924 10.47500038
142960.67499924 485730.94199944 9.44799995
142958.81299973 485732.15700150 13.71199989
142959.73500061 485731.52199936 11.88599968
142960.91299820 485730.71400070 9.56000042
142959.36299896 485731.71100044 13.22399998
142960.68099976 485730.80400085 10.62100029
142959.01300049 485731.88400078 14.49499989
142959.46099854 485731.57699966 13.61200047
142959.35900116 485731.57299995 14.45499992
142959.36299896 485731.50099945 15.07100010
142962.85300064 485729.03000069 8.81799984
142963.46400070 485728.60799980 7.61700010
142964.51999664 485727.88100052 5.54600000
142960.03300095 485730.90099907 14.96700001
142962.69800186 485728.99500084 10.35299969
142963.49399948 485728.44700050 8.79599953
142964.30100250 485727.89100075 7.21299982
142963.09299850 485728.65800095 10.15400028
142961.20800018 485729.88800049 14.44600010
142960.45500183 485730.33799934 16.52099991
142960.67800140 485730.11100006 16.73800087
142962.81999969 485728.56599998 13.14099979
142957.22200012 485734.71699905 0.33300000
142957.42200089 485734.43600082 1.20500004
142955.64799881 485735.42900085 6.69299984
142955.77500153 485735.27099991 7.06599998
142956.35499954 485734.87500000 5.88500023
142955.52600098 485735.36700058 8.20699978
142955.94699860 485735.08000183 7.34899998
142956.94200134 485734.40299988 5.32700014
142956.63399887 485734.53699875 6.62699986
142957.32400131 485733.71900177 8.28499985
142956.11399841 485734.47100067 11.37899971
142956.92599869 485733.91600037 9.74300003
142956.79499817 485733.93299866 10.63199997
142955.84999847 485734.50699997 13.13599968
142957.97200012 485733.06000137 8.88300037
142956.18299866 485734.20899963 13.09700012
142956.65000153 485733.89300156 12.16300011
142957.43700027 485733.35400009 10.58699989
142958.08800125 485732.90800095 9.27999973
142956.19100189 485734.13299942 13.69699955
142957.24900055 485733.41099930 11.57999992
142956.13499832 485734.10699844 14.38300037
142957.16799927 485733.33100128 12.92800045
142957.72800064 485732.94800186 11.81299973
142959.32400131 485731.85400009 8.62800026
142960.36500168 485731.14299965 6.55299997
142959.62900162 485731.57500076 8.64700031
142960.85200119 485730.73800087 6.21299982
142961.59600067 485730.22900009 4.73400021
142961.00400162 485730.55999947 6.57200003
142961.70999908 485730.07500076 5.16599989
142963.97600174 485728.52099991 0.66100001
142960.03900146 485731.15099907 9.06499958
142960.01599884 485731.09199905 9.77200031
142961.68199921 485729.95100021 6.47200012
142962.34999847 485729.49200058 5.14499998
142958.31800079 485732.19100189 13.72299957
142959.12099838 485731.63899994 12.13300037
142960.13700104 485730.94300079 10.12199974
142960.02399826 485730.95100021 10.94900036
142962.08399963 485729.53700066 6.87900019
142959.70600128 485731.10400009 12.15200043
142960.96900177 485730.23600006 9.65900040
142962.12699890 485729.44199944 7.37400007
142959.22800064 485731.35899925 13.74400043
142960.74399948 485730.31699944 10.75500011
142959.06999969 485731.39500046 14.67599964
142961.59999847 485729.65699959 9.69799995
142960.60400009 485730.27199936 12.25599957
142961.98199844 485729.32500076 9.55200005
142962.42399979 485728.94899940 9.31200027
142962.83200073 485728.66799927 8.51000023
142963.88700104 485727.94300079 6.44099998
142959.55799866 485730.85300064 15.54500008
142959.80599976 485730.68199921 15.06000042
142959.95000076 485730.51799965 15.34399986
142962.76100159 485728.51199913 10.44099998
142964.47200012 485727.26199913 7.72900009
142961.04499817 485729.55100060 15.05799961
142962.49300003 485728.48699951 12.82299995
142957.05300140 485734.28900146 0.24800000
142957.41400146 485734.04399872 -0.49399999
142956.20100021 485734.65200043 3.87400007
142955.87900162 485734.80099869 5.14900017
142955.93700027 485734.69300079 5.63199997
142957.20299911 485733.83100128 3.04800010
142955.20899963 485735.11399841 7.77899981
142955.85200119 485734.67699814 6.47100019
142955.77799988 485734.65299988 7.26399994
142956.18000031 485734.37900162 6.44700003
142956.31000137 485734.22100067 6.80999994
142956.40900040 485734.08000183 7.23999977
142956.74300003 485733.78099823 7.18599987
142956.75899887 485733.63399887 8.35599995
142955.80500031 485734.21500015 10.91100025
142956.04499817 485734.04999924 10.42500019
142956.51200104 485733.73199844 9.48499966
142957.05599976 485733.35900116 8.38700008
142955.59500122 485734.28099823 12.00199986
142956.18099976 485733.88199997 10.82299995
142956.62200165 485733.58000183 9.93500042
142957.15999985 485733.21200180 8.85299969
142955.99200058 485733.94599915 11.78499985
142957.72600174 485732.68500137 8.95699978
142959.01100159 485731.80500031 6.37799978
142955.61899948 485734.05899811 13.75800037
142956.31600189 485733.58300018 12.36100006
142955.51200104 485734.06399918 14.57900047
142957.08100128 485732.99000168 11.43999958
142955.87799835 485733.74700165 14.42599964
142959.00000000 485731.53400040 8.86200047
142959.09899902 485731.39299965 9.28800011
142959.40999985 485731.18000031 8.66899967
142960.27099991 485730.59099960 6.95900011
142961.54100037 485729.72100067 4.42799997
142957.48199844 485732.43299866 13.11699963
142959.99100113 485730.63999939 8.75000000
142960.76800156 485730.10799980 7.21199989
142961.29199982 485729.74900055 6.17000008
142961.69900131 485729.46899986 5.36399984
142959.83700180 485730.67600060 9.66199970
142960.90299988 485729.94499969 7.55100012
142961.58800125 485729.47699928 6.19399977
142962.16799927 485729.07799911 5.04400015
142958.79100037 485731.32999992 12.31900024
142959.52899933 485730.82299995 10.85799980
142960.10800171 485730.42499924 9.71199989
142958.13600159 485731.70999908 14.22599983
142959.39599991 485730.84399986 11.73400021
142960.31100082 485730.14399910 10.55599976
142958.69599915 485731.18099976 14.38599968
142958.65399933 485731.14500046 15.04899979
142959.92499924 485730.26899910 12.54800034
142960.48099899 485729.81299973 12.09200001
142962.18899918 485728.63899994 8.73799992
142962.46599960 485728.38100052 8.78299999
142962.46099854 485728.31699944 9.39299965
142960.06800079 485729.89900017 14.65799999
142962.62900162 485728.13500023 9.65100002
142960.06700134 485729.82600021 15.31099987
142961.46599960 485728.86100006 12.57999992
142962.58100128 485728.09099960 10.40100002
142962.67499924 485727.95599937 10.83399963
142962.76100159 485727.82900047 11.26799965
142955.92800140 485734.70600128 1.47599995
142955.75699997 485734.60900116 3.70900011
142955.62300110 485734.62799835 4.61299992
142955.94900131 485734.40700150 3.95000005
142956.47200012 485734.04999924 2.87899995
142955.42699814 485734.69499969 5.60300016
142955.35900116 485734.66600037 6.40999985
142956.02600098 485734.21200180 5.05100012
142957.00199890 485733.54700089 3.06100011
142955.36800003 485734.58700180 7.03399992
142957.02000046 485733.46200180 3.67100000
142956.26100159 485733.76399994 7.10400009
142955.47800064 485734.09099960 10.51900005
142956.44599915 485733.42900085 8.56400013
142955.51100159 485733.99399948 11.11299992
142956.09099960 485733.59700012 9.94299984
142955.86600113 485733.68299866 10.98799992
142956.23600006 485733.43000031 10.24300003
142961.55599976 485729.79400063 -0.46100000
142961.77299881 485729.56999969 -0.21699999
142957.40599823 485732.48899841 9.13599968
142958.83100128 485731.51399994 6.27799988
142955.29299927 485733.86600113 13.97599983
142956.61999893 485732.95800018 11.31499958
142955.69800186 485733.52299881 13.74300003
142956.73799896 485732.81200027 11.66300011
142956.79000092 485732.70100021 12.21199989
142957.52700043 485732.19499969 10.73900032
142958.17100143 485731.75499916 9.45699978
142959.93399811 485730.47400093 6.58500004
142956.45299911 485732.79199982 14.12399960
142959.14699936 485730.94300079 8.75800037
142959.88700104 485730.43700027 7.28900003
142960.02000046 485730.34700012 7.02699995
142959.97900009 485730.30299950 7.74499989
142961.19300079 485729.46800041 5.32900000
142961.64400101 485729.15999985 4.43300009
142959.84600067 485730.32299995 8.60799980
142960.90399933 485729.59799957 6.50799990
142961.18299866 485729.40699959 5.95499992
142959.51699829 485730.48200035 9.84200001
142961.60800171 485729.04800034 5.69999981
142959.20700073 485730.62700081 11.06400013
142961.75000000 485728.88100052 6.03200006
142960.09000015 485729.94700050 9.95300007
142961.64799881 485728.87800026 6.87400007
142960.12300110 485729.85000038 10.54699993
142960.21500015 485729.72100067 10.93700027
142959.63100052 485730.04999924 12.74600029
142960.32300186 485729.57299995 11.38399982
142958.89799881 485730.48900032 14.75100040
142960.32799911 485729.50499916 11.93999958
142960.71300125 485729.17099953 11.78699970
142962.34600067 485728.04700089 8.58399963
142963.00799942 485727.52300072 7.87400007
142960.66999817 485729.06299973 13.10499954
142956.44699860 485734.01900101 0.64800000
142955.24800110 485734.76200104 3.71700001
142955.70199966 485734.31600189 4.00899982
142956.54999924 485733.66199875 2.95300007
142955.21900177 485734.42300034 6.93900013
142955.49300003 485734.23600006 6.38199997
142956.70100021 485733.41400146 3.92000008
142955.53599930 485734.13600159 6.92600012
142956.77399826 485733.29199982 4.40799999
142955.75699997 485733.63100052 9.60499954
142956.24200058 485733.29800034 8.62399960
142955.22100067 485733.92800140 11.27499962
142955.97000122 485733.41699982 9.76500034
142956.77099991 485732.86999893 8.15299988
142955.43899918 485733.70600128 11.48499966
142955.99800110 485733.32400131 10.36100006
142955.91500092 485733.31299973 11.11499977
142957.15200043 485732.39899826 9.24600029
142956.32699966 485732.89599991 11.47799969
142955.47700119 485733.40200043 13.84099960
142956.52099991 485732.68799973 11.75300026
142956.23300171 485732.81399918 12.94499969
142957.21400070 485732.14300156 10.98900032
142956.48500061 485732.57199860 13.05700016
142956.68099976 485732.43799973 12.66800022
142958.11299896 485731.45700073 9.81200027
142956.45999908 485732.51800156 13.72399998
142958.92200089 485730.83200073 8.82100010
142956.43799973 485732.46400070 14.37500000
142958.96200180 485730.73399925 9.35700035
142961.66099930 485728.81800079 4.58699989
142960.09799957 485729.81900024 8.29300022
142961.00000000 485729.20100021 6.50899982
142958.88399887 485730.57900047 11.33500004
142959.38600159 485730.23600006 10.34200001
142959.11999893 485730.34399986 11.51399994
142958.43299866 485730.75099945 13.45699978
142960.06499863 485729.62800026 10.23499966
142960.09700012 485729.53400040 10.82900047
142962.04600143 485728.19300079 6.98600006
142962.15900040 485728.04899979 7.34200001
142960.18700027 485729.33600044 11.83100033
142961.98600006 485728.09799957 8.29699993
142962.43299866 485727.79100037 7.41800022
142960.23199844 485729.23999977 12.31700039
142961.75999832 485728.18799973 9.31900024
142962.70999908 485727.53400040 7.45499992
142960.01200104 485729.31800079 13.40499973
142961.71500015 485728.14399910 10.06900024
142960.45600128 485728.94099998 13.14599991
142962.31700134 485727.66099930 9.51000023
142960.20500183 485729.04599953 14.23799992
142960.77099991 485728.58399963 13.75599957
142962.85599899 485727.07900047 10.29300022
142963.63100052 485726.47800064 9.36900043
142963.54600143 485726.46899986 10.13099957
142954.69100189 485734.83700180 3.79800010
142955.76800156 485734.10599899 1.58500004
142954.95899963 485734.58200073 3.88299990
142955.33599854 485734.25999832 3.70600009
142955.69400024 485733.93899918 3.65400004
142955.08300018 485734.27999878 5.54099989
142956.54600143 485733.28699875 2.55599999
142956.52299881 485733.23199844 3.22399998
142955.65700150 485733.24900055 10.01500034
142955.86100006 485733.11100006 9.60499954
142955.84999847 485732.97999954 10.83199978
142957.22200012 485732.04299927 8.07699966
142957.97100067 485731.53100014 6.57200003
142957.03599930 485732.10400009 9.03199959
142957.78200150 485731.59499931 7.53599977
142955.80199814 485732.87400055 12.15900040
142957.10599899 485731.98200035 9.54800034
142956.07099915 485732.61899948 12.24400043
142956.78200150 485732.13100052 10.82199955
142957.90100098 485731.36700058 8.58699989
142956.01300049 485732.58800125 12.96500015
142956.90299988 485731.97900009 11.18999958
142956.21699905 485732.37599945 13.19600010
142957.11199951 485731.76399994 11.41199970
142956.27299881 485732.27000046 13.68799973
142957.50999832 485731.42200089 11.22700024
142959.56399918 485729.94899940 7.72800016
142959.87500000 485729.66600037 7.71500015
142961.46599960 485728.57500076 4.55900002
142958.90399933 485730.25900078 10.26700020
142960.01599884 485729.49799919 8.06599998
142961.42800140 485728.52899933 5.26900005
142958.56499863 485730.41699982 11.58899975
142958.11000061 485730.66500092 13.06499958
142958.73699951 485730.23399925 11.82699966
142958.87400055 485730.06500053 12.22299957
142959.93199921 485729.33699989 10.13500023
142958.06000137 485730.55800056 14.39700031
142959.10499954 485729.83900070 12.33800030
142960.00600052 485729.22200012 10.56599998
142959.20100021 485729.70599937 12.75699997
142958.56399918 485730.07900047 14.57299995
142959.95299911 485729.12299919 11.84300041
142958.62699890 485729.96400070 15.09399986
142960.07099915 485728.96800041 12.26099968
142960.03900146 485728.91900063 12.94900036
142960.70100021 485728.46500015 11.65600014
142961.54100037 485727.88599968 10.01000023
142962.61299896 485727.14699936 7.90999985
142961.74700165 485727.67399979 10.21300030
142962.02399826 485727.48500061 9.67199993
142962.77799988 485726.96400070 8.19600010
142959.96300125 485728.83200073 14.32900047
142960.53699875 485728.43700027 13.20899963
142961.95100021 485727.46199989 10.44999981
142960.63600159 485728.29999924 13.61100006
142961.96400070 485727.38400078 11.02499962
142960.70800018 485728.18499947 14.03800011
142962.16299820 485727.18300056 11.20899963
142963.25299835 485726.43199921 9.08500004
142962.59199905 485726.81800079 10.97599983
142963.32600021 485726.31299973 9.54800034
142954.52999878 485734.38000107 3.54099989
142954.63800049 485734.15999985 4.59800005
142955.20600128 485733.77600098 3.43499994
142955.15299988 485733.66600037 4.81400013
142955.61500168 485733.27600098 4.55100012
142955.06299973 485733.08900070 10.63500023
142956.61500168 485732.02899933 7.50799990
142956.71699905 485731.89200020 7.89699984
142956.96200180 485731.72400093 7.40299988
142955.64899826 485732.55099869 10.66600037
142956.85499954 485731.72699928 8.24600029
142957.58700180 485731.22599983 6.77400017
142957.32600021 485731.33300018 7.92799997
142956.42100143 485731.87800026 10.40400028
142957.71400070 485730.99300003 7.81500006
142955.70800018 485732.30099869 12.40299988
142956.46699905 485731.78000069 10.88599968
142956.55599976 485731.64500046 11.36400032
142956.27700043 485731.77099991 12.50199986
142956.61000061 485731.47299957 12.44999981
142957.06800079 485731.15900040 11.54100037
142958.12500000 485730.43300056 9.43400002
142958.86399841 485729.92799950 7.96799994
142958.54700089 485730.07699966 9.18299961
142959.81499863 485729.20899963 6.66599989
142958.80500031 485729.82500076 9.31999969
142959.33200073 485729.46400070 8.27700043
142961.29700089 485728.11599922 4.38000011
142957.24200058 485730.82699966 13.05399990
142958.47999954 485729.97699928 10.60000038
142959.36500168 485729.36899948 8.84799957
142957.86199951 485730.33399963 12.42399979
142958.35300064 485729.99500084 11.44999981
142958.95399857 485729.58300018 10.26399994
142957.40200043 485730.57900047 13.96399975
142958.82699966 485729.59799957 11.14799976
142957.86700058 485730.19099998 13.64099979
142960.14199829 485728.62599945 9.15299988
142958.25799942 485729.85700035 13.45499992
142958.90900040 485729.40800095 12.17300034
142959.65200043 485728.89699936 10.70699978
142958.39599991 485729.69300079 13.78699970
142959.49700165 485728.93499947 11.61999989
142960.86399841 485727.99300003 8.93200016
142959.09600067 485729.14100075 13.02499962
142959.71599960 485728.71299934 11.80700016
142961.55500031 485727.44700050 8.19499969
142958.26399994 485729.63999939 15.30799961
142960.01800156 485728.43099976 11.86900043
142959.62400055 485728.63899994 13.20699978
142960.21400070 485728.23100090 12.05099964
142961.91199875 485727.06200027 8.72700024
142959.71699905 485728.50000000 13.67899990
142961.81900024 485727.05100060 9.57100010
142959.79100037 485728.38299942 14.11400032
142960.25600052 485728.06399918 13.20899963
142962.25400162 485726.68499947 9.30700016
142961.53499985 485727.11199951 11.30900002
142961.87799835 485726.87500000 10.64099979
142962.85800171 485726.20000076 8.72999954
142962.84099960 485726.14699936 9.34599972
142956.61199951 485731.58499908 6.93900013
142956.73500061 485731.43099976 7.30900002
142956.98799896 485731.18499947 7.44700003
142957.72900009 485730.60199928 6.61899996
142957.93199921 485730.39599991 6.80600023
142958.08000183 485730.22100067 7.16699982
142957.63700104 485730.45999908 8.63599968
142956.47200012 485731.18700027 11.56799984
142956.40499878 485731.16699982 12.28699970
142957.68999863 485730.28499985 9.72900009
142958.51399994 485729.72100067 8.09200001
142958.16999817 485729.87999916 9.43500042
142957.91299820 485729.98600006 10.57199955
142958.42800140 485729.63100052 9.54899979
142959.06100082 485729.19799995 8.29500008
142959.63299942 485728.80599976 7.15899992
142959.95399857 485728.58499908 6.52199984
142956.90999985 485730.60600090 13.17099953
142957.81999969 485729.97999954 11.36900043
142959.56000137 485728.78499985 7.92199993
142957.04800034 485730.44099998 13.51299953
142957.97900009 485729.80100060 11.67000008
142958.90900040 485729.16099930 9.82999992
142957.43899918 485730.10400009 13.34399986
142957.94499969 485729.75699997 12.34399986
142958.75199890 485729.20100021 10.75100040
142958.83900070 485729.07600021 11.15299988
142959.93399811 485728.32399940 8.99499989
142957.50799942 485729.92200089 14.38799953
142958.34899902 485729.34399986 12.73099995
142957.99399948 485729.51700020 14.05799961
142958.06800079 485729.39299965 14.55399990
142959.31600189 485728.53199959 12.10200024
142958.58499908 485728.97299957 14.10799980
142959.29800034 485728.48100090 12.70899963
142961.66799927 485726.77499962 8.71899986
142959.94300079 485727.89699936 12.66899967
142961.53900146 485726.79800034 9.54899979
142961.94900131 485726.51399994 8.74600029
142960.18000031 485727.66600037 12.81999969
142962.29000092 485726.20899963 8.69900036
142954.81900024 485732.84999847 7.01499987
142956.70500183 485731.06599998 7.59000015
142956.58200073 485731.08399963 8.41499996
142957.11700058 485730.71800041 7.34000015
142957.39099884 485730.38899994 8.05200005
142957.53499985 485730.07900047 9.61400032
142958.09299850 485729.69700050 8.50199986
142958.11000061 485729.61199951 9.10599995
142959.80500031 485728.38100052 6.35200024
142957.84999847 485729.64999962 10.85599995
142958.97299957 485728.87800026 8.63099957
142959.97399902 485728.19199944 6.64699984
142957.68399811 485729.69400024 11.79500008
142958.40599823 485729.19899940 10.36499977
142959.02000046 485728.77700043 9.15200043
142957.31100082 485729.88599968 13.10499954
142958.57500076 485729.01700020 10.60799980
142959.83700180 485728.14999962 8.11400032
142957.70399857 485729.54599953 12.93999958
142958.30599976 485729.13199997 11.75100040
142957.74800110 485729.44700050 13.47099972
142958.37400055 485729.01600075 12.23700047
142959.71400070 485728.09300041 9.59700012
142957.83599854 485729.31200027 13.95199966
142959.18899918 485728.37999916 11.28999996
142960.06700134 485727.77499962 9.56499958
142960.21900177 485727.60600090 9.84399986
142960.88899994 485727.14599991 8.52600002
142957.95999908 485729.08799934 14.92099953
142961.35900116 485726.68199921 8.84000015
142959.61800003 485727.81200027 12.85000038
142959.87500000 485727.56900024 12.93000031
142960.58200073 485727.08200073 11.54899979
142960.59500122 485727.00099945 12.16699982
142962.03200150 485725.93700027 9.99199963
142954.73500061 485732.54600143 6.71000004
142956.75500107 485730.66799927 7.02699995
142956.76699829 485730.58799934 7.63800001
142957.06800079 485730.38199997 7.03399992
142956.84400177 485730.46500015 8.10400009
142957.22600174 485730.06900024 8.53100014
142957.20999908 485730.00600052 9.18900013
142959.20800018 485728.64100075 5.21199989
142958.18000031 485729.26799965 7.92000008
142957.80500031 485729.45599937 9.25899982
142958.30400085 485729.11499977 8.26799965
142958.94300079 485728.67799950 7.00099993
142959.28499985 485728.44400024 6.32200003
142957.59899902 485729.52300072 10.32100010
142958.77899933 485728.71500015 7.98199987
142959.30699921 485728.35300064 6.93599987
142958.70899963 485728.69499969 8.70800018
142959.42599869 485728.20400047 7.28700018
142958.11500168 485729.03499985 10.48700047
142958.76200104 485728.59000015 9.20899963
142959.47700119 485728.10000038 7.79500008
142957.28499985 485729.54000092 12.70100021
142958.11700058 485728.89399910 11.71000004
142959.06700134 485728.24099922 9.83800030
142957.69499969 485729.11400032 13.16800022
142958.21400070 485728.75600052 12.14700031
142958.48799896 485728.56800079 11.60599995
142959.32600021 485727.99099922 9.95600033
142959.60699844 485727.72800064 10.02000046
142960.44699860 485727.14999962 8.36699963
142957.89300156 485728.83799934 14.01000023
142958.27700043 485728.57299995 13.25399971
142959.13899994 485727.97900009 11.55900002
142959.86000061 485727.48299980 10.14799976
142958.41199875 485728.41300011 13.58699989
142959.87500000 485727.40500069 10.71800041
142960.16799927 485727.13699913 10.71599960
142960.31000137 485727.04000092 10.43900013
142960.46599960 485726.86300087 10.73700047
142960.58800125 485726.70800018 11.13399982
142960.78099823 485726.50200081 11.40900040
142956.56999969 485730.21100044 7.55200005
142956.90700150 485729.91200066 7.46899986
142957.08900070 485729.50399971 9.58899975
142959.25699997 485728.01899910 5.27699995
142957.32600021 485729.26799965 9.77299976
142957.74100113 485728.91500092 9.53400040
142958.41999817 485728.45000076 8.19200039
142958.40700150 485728.38899994 8.83100033
142959.01200104 485727.97200012 7.63399982
142957.78099823 485728.75499916 10.64500046
142958.50600052 485728.25600052 9.21100044
142959.40599823 485727.63699913 7.42899990
142960.52399826 485726.87000084 5.22100019
142957.74399948 485728.70400047 11.37600040
142958.00899887 485728.52199936 10.85499954
142958.53900146 485728.15699959 9.80700016
142959.34799957 485727.60099983 8.20899963
142957.73699951 485728.63899994 12.01000023
142958.30199814 485728.25099945 10.89500046
142959.73500061 485727.26499939 8.06900024
142957.81999969 485728.51199913 12.45600033
142957.74599838 485728.49500084 13.21800041
142958.33900070 485728.08600044 12.05099964
142958.90999985 485727.69199944 10.92599964
142958.41899872 485727.95999908 12.50699997
142959.44499969 485727.25399971 10.49600029
142959.83700180 485726.98399925 9.72599983
142958.93600082 485727.54000092 12.06599998
142960.00199890 485726.66799927 11.19900036
142956.94900131 485729.20499992 9.42599964
142957.05400085 485729.06599998 9.80000019
142957.70000076 485728.55299950 9.13399982
142958.70100021 485727.86599922 7.15000010
142958.65599823 485727.82999992 7.82800007
142959.16600037 485727.40699959 7.47700024
142960.20399857 485726.69199944 5.42299986
142957.46500015 485728.50300026 11.45600033
142958.23899841 485727.97200012 9.93099976
142958.59899902 485727.72400093 9.21899986
142959.24800110 485727.27899933 7.93800020
142959.28200150 485727.18499947 8.48400021
142959.77600098 485726.84799957 7.51100016
142957.45899963 485728.37000084 12.69699955
142958.16099930 485727.88599968 11.31499958
142958.42499924 485727.70400047 10.79500008
142959.91099930 485726.68199921 7.86800003
142957.53099823 485728.25000000 13.17399979
142958.20500183 485727.78499985 11.84599972
142959.53900146 485726.80200005 9.80099964
142956.75000000 485729.06999969 9.34300041
142956.99300003 485728.83200073 9.47999954
142957.28699875 485728.56500053 9.46800041
142958.00400162 485727.99900055 8.72000027
142958.43199921 485727.70599937 7.87200022
142957.43899918 485728.31599998 10.46000004
142957.97000122 485727.95000076 9.40999985
142958.81100082 485727.37400055 7.74900007
142957.65700150 485728.09700012 10.63199997
142958.08000183 485727.80599976 9.79699993
142959.55799866 485726.79199982 6.88000011
142958.36199951 485727.54199982 9.87300014
142959.18999863 485726.97400093 8.23900032
142958.15900040 485727.61300087 10.87600040
142958.81800079 485727.15900040 9.57800007
142959.29800034 485726.83099937 8.63399982
142958.90999985 485727.02899933 9.98600006
142958.19400024 485727.45400047 11.99199963
142959.04999924 485726.86499977 10.31400013
142957.09400177 485728.25799942 10.11600018
142957.22999954 485728.09799957 10.41899967
142957.77999878 485727.64500046 9.99499989
142958.61399841 485727.07399940 8.34799957
142959.16199875 485726.69700050 7.26700020
142957.86199951 485727.52499962 10.40200043
142957.70800018 485727.56100082 11.31099987
142958.69699860 485726.88199997 9.36499977
142959.29100037 485726.47500038 8.19699955
142957.82500076 485727.41399956 11.66699982
142959.22600174 485726.45199966 8.91499996
142958.54399872 485726.77599907 11.53299999
142957.09299850 485727.72699928 9.54899979
142957.47600174 485727.38999939 9.44699955
142957.74000168 485727.20800018 8.92399979
142957.48300171 485727.31900024 10.01299953
142958.46699905 485726.64500046 8.06900024
142957.82699966 485727.01499939 9.93700027
142958.67599869 485726.43199921 8.26099968
142957.62599945 485727.08799934 10.91600037
142959.15200043 485725.96599960 8.56200027
142957.68299866 485726.70800018 9.69600010
142957.45299911 485726.79299927 10.80200005
142957.67100143 485726.68400002 9.81299973
142957.65100098 485726.81599998 10.63300037
142957.48500061 485727.05500031 10.85000038
142957.38199997 485727.23399925 11.23299980
142957.00899887 485727.61700058 10.56999969
142957.83100128 485726.98100090 9.77400017
142957.96799850 485727.00699997 11.29800034
142957.58499908 485727.27599907 9.65900040
142957.62200165 485727.36000061 10.65999985
142957.67300034 485727.44499969 11.81400013
142957.15800095 485727.80800056 9.62100029
142957.24399948 485727.85400009 10.80200005
142957.09600067 485727.95899963 10.17399979
142956.94200134 485728.17799950 10.37199974
142958.42699814 485726.89299965 11.55900002
142958.09199905 485727.24200058 11.00100040
142957.65499878 485727.54899979 9.13599968
142958.10499954 485727.34700012 11.94600010
142957.91999817 485727.59000015 12.02700043
142957.75000000 485727.71100044 11.30200005
142957.35800171 485727.98600006 9.63300037
142957.55699921 485727.95299911 11.30099964
142957.26200104 485728.15999985 10.05300045
142957.30899811 485728.47200012 12.92199993
142959.12300110 485726.10600090 8.66100025
142958.83800125 485726.41099930 8.25899982
142958.58100128 485726.70400047 8.02700043
142958.74399948 485726.69899940 9.56599998
142958.42599869 485727.27199936 10.91699982
142958.02500153 485727.67000008 10.10000038
142958.07400131 485727.85700035 12.00300026
142957.54800034 485728.22599983 9.76500034
142957.49100113 485728.37899971 10.38799953
142957.51699829 485728.47699928 11.39200020
142957.03099823 485728.81999969 9.33600044
142957.88800049 485728.33399963 13.88700008
142957.62799835 485728.51600075 12.78699970
142956.83599854 485729.07799911 9.43599987
142957.60400009 485728.63899994 13.49300003
142957.32699966 485728.83499908 12.32400036
142956.84400177 485729.17700005 10.28199959
142957.39699936 485729.01000023 14.34700012
142959.37400055 485726.32999992 7.90100002
142959.25199890 485726.52199936 8.20499992
142959.05199814 485726.66099930 7.33699989
142959.15000153 485726.70700073 8.64500046
142958.75199890 485727.09099960 7.75899982
142958.70100021 485727.36599922 9.39900017
142958.96699905 485727.41099930 12.30599976
142958.61800003 485727.65500069 10.81799984
142958.15000153 485727.98399925 8.81299973
142958.76900101 485727.66099930 12.32199955
142958.45999908 485727.87899971 11.00599957
142958.03400040 485728.17900085 9.18099976
142957.91699982 485728.36700058 9.50399971
142958.35699844 485728.16900063 12.24199963
142957.77299881 485728.69799995 10.65900040
142958.20100021 485728.51499939 13.41499996
142957.88299942 485728.73999977 12.06400013
142957.35400009 485729.11400032 9.82600021
142957.11700058 485729.38699913 9.63300037
142957.94499969 485728.92099953 14.06799984
142957.87799835 485729.06999969 14.57800007
142957.43600082 485729.38500023 12.71800041
142957.56100082 485729.40800095 14.10900021
142957.32400131 485729.57699966 13.11499977
142957.18099976 485729.78100014 13.31000042
142956.93799973 485730.07500076 13.21700001
142959.37599945 485726.87700081 7.87599993
142959.20999908 485726.99200058 7.15600014
142959.79000092 485726.70400047 10.55399990
142959.64400101 485726.80400085 9.92500019
142959.21599960 485727.10199928 8.07699966
142958.60599899 485727.87500000 8.11900043
142958.39500046 485728.02099991 7.21899986
142958.95500183 485727.75200081 10.57299995
142959.02700043 485727.80999947 11.70899963
142958.42800140 485728.23200035 9.14500046
142958.81800079 485728.06699944 11.67399979
142958.45100021 485728.43099976 10.93299961
142958.44699860 485728.55500031 11.84300041
142957.82300186 485728.99500084 9.19099998
142957.56399918 485729.17799950 8.08699989
142958.15399933 485728.87700081 11.48900032
142957.62500000 485729.25200081 9.24300003
142958.29000092 485728.89100075 12.92800045
142958.03099823 485729.07500076 11.82499981
142957.34099960 485729.56399918 8.90200043
142957.54299927 485729.53700066 10.65900040
142957.15800095 485729.80999947 9.03499985
142957.94599915 485729.36199951 13.22399998
142956.59899902 485730.31900024 7.54300022
142958.07300186 485729.37500000 14.55700016
142957.82300186 485729.55400085 13.50599957
142957.63499832 485729.68499947 12.71899986
142957.99399948 485729.54199982 15.07299995
142957.79499817 485729.79599953 15.10999966
142957.36399841 485730.10300064 13.30700016
142957.24700165 485730.40999985 14.54800034
142956.96699905 485730.61100006 13.38000011
142954.69300079 485732.57300186 6.48699999
142954.54399872 485732.78499985 6.68300009
142955.62099838 485732.24100113 12.92899990
142960.00799942 485726.53599930 8.07499981
142960.34600067 485726.41300011 10.39400005
142959.56999969 485726.95000076 7.02199984
142960.14400101 485726.66500092 10.38700008
142959.41500092 485727.17099953 7.22599983
142960.18199921 485726.75499916 11.45600033
142959.79700089 485727.02400017 9.78800011
142959.27399826 485727.38699913 7.52699995
142959.74000168 485727.18600082 10.50000000
142959.24300003 485727.53400040 8.35200024
142959.56700134 485727.41399956 10.57600021
142958.78400040 485727.95999908 7.20100021
142959.47100067 485727.70899963 11.92899990
142959.08200073 485727.97999954 10.27000046
142958.54100037 485728.36199951 7.94700003
142959.50699997 485727.79899979 12.95699978
142959.15999985 485728.04199982 11.47299957
142958.41199875 485728.56599998 8.27900028
142959.13600159 485728.16399956 12.19499969
142958.70100021 485728.46999931 10.34200001
142957.97600174 485729.21699905 9.07600021
142958.30799866 485729.09499931 11.34899998
142958.21799850 485729.27300072 11.86299992
142958.52899933 485729.16200066 14.02900028
142957.81399918 485729.67000008 11.00300026
142957.27399826 485730.05200005 8.72399998
142957.82799911 485729.76799965 11.89299965
142957.52799988 485729.97999954 10.63199997
142956.78699875 485730.50600052 7.50600004
142958.21400070 485729.60199928 14.36499977
142958.04999924 485729.71899986 13.67500019
142958.22200012 485729.70999908 15.27000046
142957.81700134 485729.99699974 13.57400036
142957.61000061 485730.14399910 12.70499992
142957.72000122 485730.18600082 14.07699966
142957.49700165 485730.44899940 13.95199966
142957.16699982 485730.80299950 13.49899960
142956.50999832 485731.37500000 11.56000042
142956.52500153 485731.47400093 12.46399975
142956.33599854 485731.61000061 11.68000031
142956.44599915 485731.63599968 12.94999981
142956.13100052 485731.86300087 11.64700031
142956.14699936 485731.96699905 12.60999966
142954.78400040 485732.94699860 6.97100019
142956.16299820 485732.07099915 13.55900002
142955.91299820 485732.25099945 12.52999973
142956.08700180 485732.23300171 14.06599998
142955.74300003 485732.48099899 12.65100002
142955.05699921 485733.08900070 10.71100044
142960.15499878 485726.82500076 7.99300003
142960.62200165 485726.61499977 10.90299988
142960.13600159 485726.95199966 8.79500008
142959.41199875 485727.45299911 5.65399981
142960.21099854 485727.01700020 10.02700043
142960.37200165 485727.03000069 11.68799973
142959.90100098 485727.35700035 9.65499973
142959.61299896 485727.55800056 8.40299988
142959.41099930 485727.69700050 7.53599977
142959.94699860 485727.43300056 10.67899990
142959.81100082 485727.52700043 10.09500027
142959.38199997 485727.82600021 8.24499989
142959.48799896 485727.87400055 9.65299988
142958.95100021 485728.25000000 7.34299994
142959.53400040 485727.94899940 10.67199993
142959.03900146 485728.29700089 8.54699993
142959.95800018 485727.76499939 13.34399986
142959.14300156 485728.33300018 9.86200047
142959.70299911 485728.05200005 13.09200001
142959.24200058 485728.37500000 11.12600040
142958.77700043 485728.70199966 9.13700008
142959.63100052 485728.21999931 13.70300007
142959.29899979 485728.45400047 12.28400040
142958.76300049 485728.83099937 10.00199986
142958.40299988 485729.08399963 8.46300030
142959.44800186 485728.46500015 13.82800007
142958.42399979 485729.29800034 10.32800007
142958.03200150 485729.57500076 8.66199970
142958.49900055 485729.36000061 11.52299976
142957.93000031 485729.76000023 9.12199974
142958.08100128 485729.76600075 10.62399960
142957.79399872 485729.96899986 9.40900040
142957.47600174 485730.19400024 8.05900002
142957.21099854 485730.38199997 6.94000006
142958.57699966 485729.52099991 13.53699970
142958.29499817 485729.72100067 12.34300041
142958.12099838 485729.84499931 11.60799980
142957.91899872 485729.98800087 10.75300026
142957.44599915 485730.32200050 8.76099968
142958.24599838 485729.86800003 13.00300026
142958.43899918 485729.84399986 14.68799973
142958.13000107 485730.06299973 13.39200020
142958.02399826 485730.25799942 13.87100029
142958.05199814 485730.34099960 14.78600025
142957.57600021 485730.68000031 12.79500008
142957.56399918 485730.80699921 13.65299988
142957.09099960 485731.14399910 11.67899990
142956.65299988 485731.56100082 10.65799999
142956.83200073 485731.54400063 12.25399971
142956.64699936 485731.67600060 11.48400021
142956.40000153 485731.85199928 10.45600033
142956.57600021 485731.83399963 12.01599979
142956.53300095 485731.97999954 12.74100018
142956.22700119 485732.42200089 13.17700005
142956.02099991 485732.57099915 12.32800007
142955.64799881 485732.83800125 10.79100037
142956.18399811 485732.56499863 13.85400009
142955.58399963 485732.99700165 11.38599968
142955.38100052 485733.14199829 10.55300045
142955.81700134 485732.93899918 13.19600010
142955.28300095 485733.32400131 11.00300026
142955.04399872 485733.60100174 10.81999969
142955.06299973 485734.02399826 14.27099991
142961.33200073 485726.08300018 8.61499977
142961.18999863 485726.30599976 8.95899963
142960.37200165 485726.87000084 5.38000011
142961.10300064 485726.47500038 9.43400002
142960.62900162 485726.91799927 8.24899960
142960.46099854 485727.14299965 8.36200047
142959.69100189 485727.79899979 5.96500015
142959.45800018 485728.07900047 5.86399984
142960.44699860 485727.50499916 11.03299999
142960.13999939 485727.71899986 9.70499992
142959.23400116 485728.35000038 5.79199982
142959.53200150 485728.26000023 7.99700022
142959.25199890 485728.45599937 6.78800011
142960.38600159 485727.77700043 12.55000019
142959.69900131 485728.25799942 9.59700012
142959.35800171 485728.49699974 8.13300037
142959.16099930 485728.63400078 7.28599977
142960.14500046 485728.05200005 12.33500004
142959.08599854 485728.90699959 8.67000008
142959.39599991 485728.80500031 10.88300037
142959.07099915 485729.03199959 9.49499989
142959.81900024 485728.62899971 13.62800026
142958.90100098 485729.27499962 9.71599960
142958.38999939 485729.73999977 8.35799980
142959.26100159 485729.25000000 13.00500011
142958.83200073 485729.55200005 11.18299961
142957.93099976 485730.18799973 7.36000013
142959.11800003 485729.45400047 13.22000027
142958.44499969 485729.93099976 10.36499977
142957.98199844 485730.25799942 8.40200043
142959.10599899 485729.57200050 14.01399994
142958.61899948 485729.91799927 11.95100021
142958.27099991 485730.16500092 10.48200035
142957.85100174 485730.46100044 8.70699978
142958.69800186 485729.96599960 13.10400009
142958.52999878 485730.08499908 12.39299965
142957.28400040 485730.96999931 7.13399982
142957.45700073 485730.96699905 8.79300022
142957.11299896 485731.21199989 7.34600019
142958.47100067 485730.36100006 13.95699978
142958.04700089 485730.77400017 13.02900028
142956.80199814 485731.66099930 7.80700016
142956.67399979 485731.86599922 8.15600014
142957.24300003 485731.57099915 11.38899994
142957.06399918 485731.80200005 11.44400024
142956.81999969 485731.97599983 10.42700005
142955.50500107 485732.91799927 4.94600010
142957.00699997 485732.06399918 12.92599964
142956.72299957 485732.38700104 12.67000008
142956.61299896 485732.57099915 13.01799965
142956.44100189 485732.69499969 12.30900002
142956.40000153 485732.84099960 13.03499985
142956.06299973 485733.08399963 11.64900017
142955.74100113 485733.31700134 10.32199955
142956.45199966 485732.90700150 14.04899979
142955.67300034 485733.46799850 10.84599972
142955.31399918 485733.83700180 10.19799995
142955.84600067 485733.55699921 13.18700027
142955.36199951 485733.90599823 11.20699978
142955.82500076 485733.68899918 14.00500011
142955.50699997 485734.03099823 13.55900002
142955.52999878 485734.11999893 14.48999977
142962.02999878 485725.93400002 9.99899960
142961.68099976 485726.29599953 9.41399956
142960.69599915 485726.97299957 5.10699987
142961.37400055 485726.61599922 8.91699982
142960.57899857 485727.16399956 5.44399977
142960.93199921 485727.14699936 8.73400021
142960.84500122 485727.32999992 9.31400013
142960.44900131 485727.60499954 7.59100008
142960.38499832 485727.76600075 8.22500038
142960.01599884 485728.02400017 6.62099981
142960.05699921 485728.10899925 7.68699980
142959.29800034 485728.75600052 5.30800009
142959.95399857 485728.41099930 9.01799965
142959.43199921 485728.77499962 6.77099991
142960.26699829 485728.29800034 11.20300007
142959.50799942 485728.82999992 7.94000006
142960.66999817 485728.12899971 13.80300045
142960.13600159 485728.50300026 11.51399994
142960.27999878 485728.51899910 13.02900028
142959.72600174 485728.90699959 10.66300011
142959.17100143 485729.29800034 8.28699970
142959.86100006 485728.93400002 12.16199970
142959.68999863 485729.05400085 11.43299961
142959.72000122 485729.13899994 12.37699986
142958.72999954 485729.83600044 8.15799999
142960.04100037 485729.03100014 14.67099953
142959.25799942 485729.58499908 11.34000015
142958.97399902 485729.78400040 10.13700008
142958.96300125 485729.89900017 10.90799999
142958.61000061 485730.14800072 9.41499996
142958.02600098 485730.55999947 6.94000006
142959.18299866 485729.85600090 12.72399998
142958.79000092 485730.23999977 11.86699963
142958.52700043 485730.54599953 11.68799973
142957.60400009 485731.20000076 7.79600000
142957.50199890 485731.38599968 8.24600029
142957.25199890 485731.56399918 7.19000006
142957.07500076 485731.80200005 7.31199980
142957.03499985 485731.94499969 8.03999996
142958.42800140 485731.06200027 14.72700024
142957.48099899 485731.73900032 10.77099991
142957.30699921 485731.96699905 10.86299992
142956.95999908 485732.21599960 9.41100025
142957.18799973 485732.16199875 11.21100044
142955.40700150 485733.55300140 4.68699980
142955.09999847 485733.77399826 3.41000009
142957.12200165 485732.43999863 12.71599960
142956.81700134 485732.76100159 12.25000000
142956.13999939 485733.36800003 10.36800003
142956.01200104 485733.45999908 9.83899975
142955.96099854 485733.60200119 10.43900013
142954.87300110 485734.38700104 5.95499992
142956.42699814 485733.37599945 13.20100021
142956.26399994 485733.49300003 12.53600025
142956.43199921 485733.47399902 14.00599957
142956.16099930 485733.66999817 12.89400005
142955.92699814 485733.83900070 11.93799973
142955.67800140 485734.01900101 10.91600037
142955.68199921 485734.13299942 11.82699966
142956.13899994 485733.91299820 14.55399990
142956.04000092 485734.09199905 14.99499989
142962.05799866 485726.23500061 9.37899971
142962.12699890 485726.30299950 10.56200027
142962.04800034 485726.46400070 11.05599976
142961.54999924 485726.80699921 8.88000011
142961.08900070 485727.35899925 8.67099953
142960.91799927 485727.47699928 7.92799997
142960.57500076 485727.94700050 8.23200035
142960.27299881 485728.15600014 6.92399979
142960.11299896 485728.39200020 7.20400000
142959.96599960 485728.49600029 6.56400013
