142945.95000076 485758.36999893 12.75000000
142944.63999939 485760.13000107 4.90000010
142950.29999924 485759.34999847 15.51000023
142949.75999832 485758.88999939 15.97000027
142949.11000061 485758.77999878 15.14000034
142948.45999908 485758.63999939 14.36999989
142948.00999832 485757.90999985 15.81000042
142947.27000046 485758.04000092 14.03999996
142946.79000092 485757.41999817 15.06000042
142946.15999985 485757.20000076 14.56999969
142945.63000107 485756.72999954 15.01000023
142944.16999817 485758.86999893 5.67999983
142951.04000092 485759.02999878 15.81000042
142950.00000000 485760.20999908 10.28999996
142949.93999863 485758.15999985 16.51000023
142949.11000061 485758.63000107 13.55000019
142948.72000122 485757.68000031 15.76000023
142947.84999847 485758.22000122 12.52000046
142947.50999832 485757.15999985 15.15999985
142946.99000168 485756.63000107 15.81000042
142946.40999985 485756.29999924 15.76000023
142945.66999817 485756.43999863 13.89999962
142944.41999817 485757.97999954 6.84000015
142943.72999954 485757.88999939 5.82000017
142950.72999954 485758.63000107 14.35000038
142950.06000137 485758.56000137 13.34000015
142949.77999878 485757.25000000 16.87000084
142949.04999924 485757.38999939 15.10000038
142947.79000092 485759.13999939 7.42999983
142947.72000122 485757.24000168 13.10999966
142947.36000061 485756.25000000 15.48999977
142946.70999908 485756.11000061 14.72000027
142946.04999924 485756.02000046 13.73999977
142945.47000122 485755.66999817 13.69999981
142944.63000107 485756.04999924 10.97000027
142943.45000076 485757.31999969 4.86000013
142950.93000031 485757.38999939 16.37000084
142950.38000107 485756.95000076 16.71999931
142949.79999924 485756.61000061 16.69000053
142949.15999985 485756.45999908 15.98999977
142948.36000061 485756.79000092 13.52000046
142947.83000183 485756.31000137 13.98999977
142947.29999924 485755.83000183 14.47999954
142946.61999893 485755.75999832 13.42000008
142946.02000046 485755.49000168 13.10000038
142945.18999863 485755.84999847 10.44999981
142944.65000153 485755.36999893 10.89999962
142951.45000076 485757.38000107 15.23999977
142950.90000153 485756.93000031 15.63000011
142950.29999924 485756.65999985 15.39000034
142949.79000092 485756.11000061 16.11000061
142948.93999863 485756.58000183 13.11999989
142948.11000061 485757.00000000 10.31000042
142948.40000153 485756.13999939 13.47999954
142947.61000061 485756.40999985 11.18000031
142947.11999893 485755.77000046 12.22999954
142946.70000076 485754.99000168 13.81000042
142945.74000168 485755.70999908 9.80000019
142945.27999878 485755.02000046 11.02000046
142944.09000015 485756.29999924 4.86999989
142951.72000122 485756.59000015 15.72999954
142950.88999939 485757.06000137 12.80000019
142949.29999924 485757.68999863 7.96999979
142950.02999878 485755.43000031 16.18000031
142949.27000046 485755.63000107 14.19999981
142948.72000122 485755.20000076 14.47999954
142947.54999924 485756.59000015 8.06000042
142947.59000015 485754.45000076 14.64000034
142946.52000046 485755.47999954 9.50000000
142945.74000168 485755.68000031 7.40999985
142944.84000015 485756.20000076 4.13000011
142952.33000183 485756.45000076 15.00000000
142951.72000122 485756.20999908 14.61999989
142951.25000000 485755.50999832 15.89000034
142950.18999863 485756.68999863 10.35999966
142949.25999832 485757.38999939 6.51999998
142950.04999924 485754.97999954 15.31000042
142948.75000000 485756.77999878 7.44000006
142948.34999847 485755.88000107 9.43999958
142948.22999954 485754.20000076 14.27999973
142947.65000153 485753.86000061 14.23999977
142946.63000107 485754.75000000 9.60000038
142945.65000153 485755.49000168 5.51999998
142952.33000183 485756.25000000 12.96000004
142951.40999985 485757.00000000 9.01000023
142951.40999985 485754.79999924 15.72999954
142950.77999878 485754.63000107 15.07999992
142949.24000168 485757.22000122 4.36999989
142950.13999939 485754.47999954 14.35000038
142948.29999924 485757.88000107 0.61000001
142949.08000183 485755.56000137 9.10999966
142948.72000122 485754.54000092 11.52000046
142948.11000061 485754.29000092 11.14000034
142947.81000137 485753.13999939 14.06000042
142946.27999878 485755.43000031 4.23999977
142945.52999878 485755.52000046 2.53999996
142952.70999908 485755.88000107 12.47000027
142952.33000183 485754.86999893 14.86999989
142951.65000153 485754.86999893 13.61999989
142950.88000107 485755.11000061 11.47000027
142950.47999954 485754.18999863 13.53999996
142948.88000107 485756.90999985 2.30999994
142949.11000061 485756.20000076 4.92000008
142948.75000000 485755.18000031 7.30000019
142948.54000092 485753.74000168 11.27999973
142946.65999985 485755.06000137 3.73000002
142952.84000015 485755.29000092 11.85000038
142952.04000092 485755.65000153 9.31000042
142951.50000000 485755.16999817 9.77999973
142950.40999985 485756.36999893 4.13000011
142950.65999985 485753.47999954 13.34000015
142948.93000031 485756.54000092 0.87000000
142949.86999893 485753.77000046 10.98999977
142949.08000183 485754.02000046 8.75000000
142948.72999954 485752.99000168 11.21000004
142948.20999908 485752.47000122 11.78999996
142947.70000076 485751.93000031 12.43000031
142946.61000061 485752.97999954 7.21000004
142952.74000168 485754.93000031 10.34000015
142951.90000153 485755.38000107 7.42000008
142951.09000015 485755.72999954 4.84999990
142950.11000061 485756.56000137 0.54000002
142949.74000168 485755.52000046 3.00999999
142950.43999863 485753.45000076 10.52999973
142949.95000076 485752.81999969 11.52000046
142949.33000183 485752.59000015 11.06000042
142948.74000168 485752.27999878 10.88000011
142947.97999954 485752.40999985 9.03999996
142947.38000107 485752.13000107 8.72000027
142946.47999954 485752.61999893 5.51999998
142953.88000107 485753.79000092 13.23999977
142953.22000122 485753.70000076 12.27999973
142952.13000107 485754.93999863 6.53999996
142951.70999908 485754.06999969 8.39000034
142950.93000031 485754.31999969 6.21000004
142950.09999847 485754.70000076 3.49000001
142950.20999908 485752.29999924 10.93000031
142949.65999985 485751.86999893 11.18999958
142948.16999817 485754.06999969 1.75000000
142947.52999878 485751.86999893 7.13999987
142952.72999954 485754.20999908 7.32000017
142951.95000076 485754.43999863 5.19000006
142951.61999893 485753.29999924 7.98999977
142950.66999817 485754.06000137 3.95000005
142950.24000168 485753.22000122 5.67000008
142949.74000168 485752.61000061 6.55000019
142948.88000107 485753.04000092 3.64000010
142948.31999969 485752.59999847 3.88000011
142954.11999893 485753.40000153 9.55000019
142952.81999969 485755.33000183 1.36000001
142952.74000168 485753.36000061 7.15000010
142952.22999954 485752.77999878 7.94000006
142950.75000000 485752.99000168 4.55999994
142950.38000107 485752.00000000 6.82000017
142949.43000031 485752.66999817 3.01999998
142948.90999985 485752.13000107 3.65000010
142954.13000107 485752.63000107 9.22000027
142953.18999863 485753.38999939 5.19000006
142952.88000107 485752.15999985 8.31000042
142952.27000046 485751.88999939 7.98000002
142951.50000000 485752.09999847 5.92000008
142950.95000076 485751.63000107 6.28000021
142949.70999908 485753.15999985 -0.64999998
142949.41999817 485751.95000076 2.42000008
142953.79999924 485753.84999847 2.30999994
142952.50000000 485753.50000000 0.94999999
142952.25000000 485752.11999893 4.63000011
142951.58000183 485751.99000168 3.75999999
142951.13999939 485751.20999908 5.25000000
142950.27999878 485751.63000107 2.38000011
142954.11000061 485753.15000153 2.09999990
142952.54999924 485751.41999817 4.34999990
142947.72000122 485763.68000031 7.90999985
142947.40000153 485763.40000153 9.64999962
142947.59999847 485763.61999893 5.90000010
142947.31000137 485763.36999893 7.00000000
142948.24000168 485763.52000046 8.60999966
142947.97999954 485763.29999924 9.23999977
142948.04999924 485763.38000107 7.94999981
142947.65999985 485763.09999847 6.59000015
142947.31999969 485762.79000092 8.64999962
142947.20999908 485762.75000000 6.40999985
142946.95999908 485762.54999924 6.69999981
142946.75000000 485762.38000107 6.48999977
142944.88000107 485760.88000107 7.11000013
142944.70999908 485760.77000046 5.86999989
142944.47000122 485760.58000183 6.03000021
142948.38999939 485763.40000153 7.78000021
142948.11000061 485763.15000153 8.77999973
142947.79000092 485762.95000076 6.13000011
142947.38999939 485762.56999969 9.51000023
142947.24000168 485762.47999954 7.82999992
142946.70999908 485762.11999893 4.67999983
142945.00000000 485760.72999954 6.73999977
142945.11999893 485760.86999893 4.17000008
142944.61000061 485760.45000076 5.17999983
142944.40000153 485760.29000092 4.80999994
142948.54999924 485762.93999863 9.52999973
142948.59999847 485763.00000000 8.56999969
142948.36999893 485762.81999969 8.52000046
142948.49000168 485763.04000092 1.92999995
142948.04000092 485762.61000061 6.05000019
142948.27000046 485762.86999893 1.75000000
142947.40999985 485762.04000092 9.48999977
142947.49000168 485762.13000107 7.88999987
142947.25999832 485761.95999908 7.84999990
142947.40000153 485762.11000061 5.26999998
142946.93000031 485761.65999985 9.80000019
142946.70000076 485761.47000122 10.00000000
142946.65999985 485761.50999832 6.09999990
142946.74000168 485761.59999847 4.51999998
142946.50999832 485761.41999817 4.55999994
142946.31000137 485761.27000046 3.88000011
142945.47999954 485760.56000137 6.84999990
142945.09999847 485760.29000092 5.05999994
142944.88000107 485760.13000107 4.67999983
142948.77000046 485762.70999908 8.14999962
142948.84000015 485762.86999893 2.52999997
142948.13000107 485762.20999908 7.34000015
142948.20000076 485762.29000092 6.03000021
142947.61000061 485761.70000076 12.80000019
142947.58000183 485761.74000168 9.10000038
142947.18000031 485761.36000061 12.47000027
142947.29999924 485761.50000000 10.14000034
142947.40000153 485761.61999893 8.13000011
142947.31000137 485761.59999847 5.28999996
142947.41999817 485761.72999954 3.03999996
142947.06999969 485761.40999985 5.42999983
142946.68000031 485761.04000092 8.69999981
142946.70000076 485761.15000153 3.58999991
142946.41999817 485760.90999985 4.65000010
142946.24000168 485760.79000092 3.57999992
142946.04000092 485760.63999939 2.88000011
142946.22999954 485760.86000061 -1.12000000
142945.50000000 485760.18000031 4.63999987
142945.61999893 485760.31999969 2.07999992
142945.33000183 485760.06999969 3.25000000
142945.52999878 485760.29999924 -1.00999999
142944.88000107 485759.70999908 3.04999995
142944.38999939 485759.31999969 3.64000010
142949.16999817 485762.40999985 11.80000019
142948.84999847 485762.18999863 9.47000027
142948.93000031 485762.29000092 7.82000017
142948.61999893 485762.00000000 9.51000023
142948.22000122 485761.63000107 12.75000000
142948.38000107 485761.81000137 9.67000008
142948.41999817 485761.86000061 8.93999958
142948.25000000 485761.75000000 7.71000004
142948.34999847 485761.86000061 5.90000010
142947.47999954 485761.02000046 13.90999985
142947.56999969 485761.13000107 12.10000038
142947.77000046 485761.36000061 8.19999981
142947.43000031 485761.04000092 10.43000031
142947.70000076 485761.36000061 4.96999979
142947.79999924 485761.47000122 3.13000011
142947.02999878 485760.66999817 13.82999992
142947.22000122 485760.88999939 9.97000027
142947.27000046 485760.95000076 8.96000004
142946.84999847 485760.54000092 12.97999954
142946.93999863 485760.72999954 6.38000011
142946.97999954 485760.77999878 5.57000017
142946.79999924 485760.65999985 4.48000002
142946.34000015 485760.20000076 9.31000042
142946.79000092 485760.72999954 0.04000000
142946.11999893 485760.02999878 9.23999977
142946.34999847 485760.29999924 4.28000021
142946.59999847 485760.59999847 -1.00000000
142946.16999817 485760.18000031 3.28999996
142945.93000031 485759.99000168 3.40000010
142946.13000107 485760.22000122 -0.81000000
142945.70000076 485759.79999924 3.40000010
142945.20999908 485759.40000153 4.01999998
142945.27000046 485759.47000122 2.69000006
142944.63999939 485758.90000153 6.55000019
142944.47000122 485758.79000092 5.23999977
142948.72999954 485761.70999908 14.72999954
142949.09999847 485762.13999939 7.69000006
142948.54999924 485761.59000015 13.78999996
142948.79000092 485761.86999893 9.23999977
142948.54999924 485761.66999817 9.46000004
142948.04999924 485761.18000031 14.65999985
142948.18000031 485761.33000183 12.14999962
142948.70999908 485761.93000031 2.08999991
142948.18999863 485761.41999817 7.53000021
142948.29999924 485761.54999924 5.40999985
142947.74000168 485760.97999954 11.86999989
142947.77999878 485761.11000061 6.61999989
142947.20999908 485760.54000092 13.38000011
142947.38999939 485760.74000168 9.94999981
142947.00999832 485760.38999939 12.88000011
142946.97999954 485760.43000031 8.93000031
142946.59000015 485760.06999969 12.15999985
142946.86000061 485760.38000107 6.73000002
142947.09999847 485760.65999985 1.83000004
142946.74000168 485760.33000183 4.42999983
142946.93999863 485760.56999969 0.14000000
142946.49000168 485760.11000061 4.90999985
142946.52999878 485760.25000000 -0.82999998
142946.09999847 485759.83000183 3.31999993
142945.84999847 485759.63000107 3.70000005
142945.61999893 485759.45000076 3.61999989
142945.36999893 485759.25000000 3.96000004
142945.06000137 485758.97000122 5.80999994
142944.36999893 485758.41999817 5.84999990
142944.27000046 485758.38999939 2.89000010
142943.90999985 485758.04999924 5.90999985
142943.77000046 485757.97999954 3.78999996
142948.81999969 485761.24000168 13.94999981
142949.18999863 485761.65000153 7.07999992
142948.56999969 485761.02999878 14.36999989
142948.47000122 485760.99000168 12.10000038
142948.59999847 485761.13999939 9.60999966
142948.40000153 485761.00000000 8.94999981
142948.56999969 485761.18999863 5.65999985
142947.99000168 485760.59999847 12.56999969
142948.02999878 485760.65000153 11.68000031
142948.18999863 485760.83000183 8.72000027
142948.50000000 485761.18000031 2.67000008
142947.77999878 485760.43999863 12.19999981
142947.97000122 485760.65999985 8.51000023
142948.24000168 485760.97000122 3.11999989
142947.81999969 485760.56999969 6.84999990
142947.99000168 485760.77000046 3.51999998
142948.09999847 485760.90000153 1.25999999
142947.34000015 485760.09999847 11.94999981
142947.50999832 485760.29000092 8.61999989
142947.61000061 485760.40999985 6.51000023
142947.09999847 485759.90999985 12.17000008
142947.25000000 485760.08000183 9.14999962
142947.11000061 485760.08000183 2.68000007
142946.63000107 485759.61000061 7.84999990
142946.63999939 485759.70999908 2.81999993
142946.40999985 485759.52000046 2.78999996
142945.95999908 485759.16999817 2.43000007
142945.72999954 485758.99000168 2.35999990
142945.15999985 485758.49000168 4.94999981
142945.25000000 485758.61000061 2.74000001
142944.84999847 485758.22000122 6.67000008
142944.61999893 485758.04000092 6.65999985
142944.79000092 485758.24000168 2.69000006
142944.22999954 485757.75999832 5.00000000
142944.06000137 485757.63999939 3.70000005
142943.77999878 485757.40999985 4.69000006
142949.47000122 485761.33000183 15.96000004
142949.27000046 485761.18000031 15.53999996
142949.58000183 485761.59999847 5.63999987
142948.81000137 485760.79999924 15.81999969
142949.16999817 485761.20999908 9.07999992
142949.27999878 485761.34000015 6.88999987
142948.90000153 485760.97999954 9.81999969
142948.58000183 485760.70000076 11.52000046
142948.68000031 485760.81999969 9.57999992
142948.75000000 485760.88999939 8.30000019
142948.22999954 485760.38000107 14.00000000
142948.34000015 485760.50999832 11.76000023
142948.43999863 485760.61999893 9.90999985
142948.81999969 485761.04999924 2.63000011
142948.09999847 485760.31999969 11.97000027
142947.97999954 485760.25000000 9.97999954
142948.24000168 485760.54999924 4.84000015
142947.83000183 485760.15999985 8.47000027
142947.91999817 485760.27000046 6.53000021
142947.40999985 485759.75999832 12.25000000
142947.15999985 485759.54999924 12.77000046
142947.38000107 485759.81000137 8.26000023
142947.43000031 485759.86000061 7.30999994
142947.13000107 485759.61000061 8.55000019
142947.54000092 485760.06999969 0.30000001
142946.65999985 485759.22000122 8.93000031
142946.43999863 485759.04999924 8.68999958
142946.22000122 485758.88999939 8.46000004
142946.50000000 485759.22000122 2.45000005
142945.91999817 485758.61000061 10.26000023
142945.45999908 485758.25000000 10.14000034
142945.61999893 485758.43999863 6.65000010
142945.68999863 485758.52000046 5.05000019
142945.36000061 485758.22000122 7.28999996
142944.68999863 485757.68999863 7.01999998
142944.63999939 485757.74000168 2.61999989
142949.54999924 485760.88000107 13.63000011
142949.66999817 485761.02000046 11.44999981
142949.18000031 485760.54999924 16.26000023
142949.27999878 485760.65999985 14.43000031
142949.00999832 485760.43000031 15.23999977
142949.11000061 485760.54000092 13.27999973
142948.81000137 485760.27000046 14.81000042
142948.88999939 485760.36000061 13.30000019
142949.27999878 485760.79999924 5.96999979
142948.75999832 485760.29999924 11.36999989
142948.83000183 485760.36999893 10.06999969
142948.54000092 485760.11999893 11.32999992
142948.61999893 485760.20999908 9.77000046
142948.40999985 485760.04999924 9.35999966
142948.47999954 485760.13000107 8.06000042
142948.09999847 485759.77999878 10.97000027
142948.29000092 485759.99000168 7.32000017
142947.72000122 485759.41999817 14.10000038
142947.50000000 485759.25000000 13.97000027
142947.59999847 485759.43999863 7.38000011
142947.29999924 485759.18000031 8.77000046
142947.54000092 485759.45999908 3.75000000
142946.88000107 485758.86999893 7.88000011
142947.11999893 485759.13999939 2.91000009
142947.24000168 485759.27999878 0.31999999
142946.70000076 485758.83000183 1.99000001
142946.83000183 485758.97999954 -0.75000000
142945.97000122 485758.06000137 12.82999992
142946.04999924 485758.15000153 11.14999962
142945.83000183 485757.97999954 10.97999954
142946.20000076 485758.41999817 2.73000002
142945.61999893 485757.81999969 10.60999966
142945.65000153 485757.86000061 9.84000015
142945.95000076 485758.20999908 3.18000007
142945.41999817 485757.65999985 10.07999992
142945.77000046 485758.08000183 2.17000008
142945.20000076 485757.50000000 9.78999996
142945.40000153 485757.72999954 5.26999998
142945.24000168 485757.63999939 3.52999997
142944.45999908 485756.97999954 5.73000002
142944.29000092 485756.86999893 4.34999990
142949.93000031 485760.86999893 14.52000046
142949.72999954 485760.72000122 14.01000023
142949.59999847 485760.63999939 12.35999966
142949.65999985 485760.70999908 11.21000004
142949.18999863 485760.25999832 15.76000023
142949.84999847 485761.08000183 -0.97000003
142948.97999954 485760.16999817 11.19999981
142949.27999878 485760.50999832 5.53000021
142948.86000061 485760.11999893 9.06999969
142949.04999924 485760.34000015 5.36999989
142948.61999893 485759.91999817 9.32999992
142948.27999878 485759.61000061 11.56999969
142948.31000137 485759.65000153 10.89999962
142948.47000122 485759.84000015 7.69000006
142948.63000107 485760.02000046 4.61000013
142948.31999969 485759.74000168 6.28999996
142947.70999908 485759.11999893 13.89999962
142948.27000046 485759.75999832 2.58999991
142947.79000092 485759.29999924 7.57000017
142947.95999908 485759.49000168 4.13000011
142948.08000183 485759.63000107 1.71000004
142947.56000137 485759.11000061 7.59000015
142947.75000000 485759.33000183 3.70000005
142946.97000122 485758.52000046 15.06000042
142947.06999969 485758.61999893 13.11999989
142947.33000183 485758.93000031 7.71000004
142947.09000015 485758.72999954 7.96000004
142946.91999817 485758.70999908 1.75999999
142946.18999863 485757.93999863 12.59000015
142946.11000061 485757.93999863 9.22000027
142945.81999969 485757.68000031 10.67000008
142945.45000076 485757.50999832 3.52999997
142944.90999985 485757.04999924 5.32000017
142944.65999985 485756.84000015 5.94000006
142944.40000153 485756.61999893 6.59999990
142944.20000076 485756.47999954 5.80999994
142944.00000000 485756.33000183 5.11999989
142950.00000000 485760.34999847 14.89999962
142950.02000046 485760.43999863 10.51000023
142949.47999954 485759.99000168 12.02000046
142949.09000015 485759.61999893 15.19999981
142949.15000153 485759.68000031 14.07999992
142949.27000046 485759.83000183 11.64999962
142948.99000168 485759.58000183 12.82999992
142949.09000015 485759.70000076 10.78999996
142948.97000122 485759.63000107 8.82999992
142948.95000076 485759.68999863 4.67999983
142948.18999863 485758.90999985 15.13000011
142948.61000061 485759.38000107 6.82000017
142948.52000046 485759.36000061 4.01000023
142947.84000015 485758.65999985 13.13000011
142948.36000061 485759.25999832 2.61999989
142948.08000183 485759.00999832 3.68000007
142948.15999985 485759.11000061 1.94000006
142947.31999969 485758.22999954 14.51000023
142947.43000031 485758.34999847 12.35000038
142947.11999893 485758.06999969 14.03999996
142947.52999878 485758.54000092 5.53999996
142947.34999847 485758.41999817 4.48999977
142947.50000000 485758.59000015 1.34000003
142946.59999847 485757.63999939 15.44999981
142946.68999863 485757.74000168 13.48999977
142946.18999863 485757.33000183 14.51000023
142946.36999893 485757.52999878 10.71000004
142945.91999817 485757.09000015 15.60999966
142945.72999954 485756.95999908 14.80000019
142945.47000122 485756.74000168 15.63000011
142945.68000031 485756.99000168 10.82999992
142945.75000000 485757.06999969 9.23999977
142946.18000031 485757.58000183 -0.50000000
142945.43999863 485756.79000092 11.26000023
142945.24000168 485756.63999939 10.55000019
142945.25000000 485756.75000000 5.01000023
142945.33000183 485756.84999847 3.02999997
142944.75999832 485756.25999832 11.06999969
142945.06999969 485756.61999893 3.94000006
142944.56000137 485756.09999847 10.47999954
142950.08000183 485760.02999878 14.67000008
142950.20000076 485760.15999985 12.43999958
142949.99000168 485760.00000000 12.22000027
142950.09999847 485760.11000061 10.25000000
142949.56000137 485759.59000015 15.97000027
142949.88000107 485759.93999863 10.07999992
142949.36999893 485759.45000076 15.40999985
142949.65999985 485759.77999878 9.85999966
142949.06999969 485759.25999832 12.44999981
142949.18999863 485759.40000153 10.13000011
142948.77000046 485759.00000000 13.86999989
142949.02999878 485759.29999924 8.75000000
142948.52000046 485758.79000092 14.39999962
142949.04000092 485759.38000107 4.23999977
142948.70000076 485759.06999969 6.28999996
142948.81000137 485759.20000076 4.03000021
142948.09999847 485758.47000122 13.68000031
142947.77999878 485758.18999863 15.57999992
142947.93999863 485758.36999893 12.28999996
142948.36999893 485758.86000061 3.61999989
142948.43999863 485758.93000031 2.30999994
142947.81999969 485758.38999939 5.46999979
142947.11000061 485757.65000153 15.56000042
142947.18999863 485757.75000000 13.82999992
142947.79999924 485758.45000076 1.04999995
142946.93999863 485757.52999878 14.44999981
142946.86000061 485757.52999878 11.31999969
142947.38000107 485758.13000107 0.15000001
142946.66999817 485757.40000153 10.34000015
142947.13000107 485757.93000031 0.38000000
142946.25000000 485756.99000168 14.61999989
142946.45000076 485757.20999908 10.39000034
142946.04000092 485756.83000183 14.31000042
142946.47000122 485757.33000183 4.90999985
142946.70000076 485757.59999847 -0.34000000
142945.77999878 485756.59999847 15.18000031
142945.83000183 485756.66999817 13.89000034
142945.54000092 485756.50000000 10.22999954
142945.47999954 485756.52000046 6.40000010
142945.06999969 485756.11999893 10.57999992
142950.54999924 485759.86000061 15.86999989
142950.33000183 485759.68000031 15.77999973
142950.11999893 485759.52000046 15.56000042
142949.81999969 485759.27000046 16.84000015
142949.97999954 485759.43999863 13.89000034
142949.61999893 485759.11000061 16.37999916
142949.70999908 485759.20999908 14.68999958
142950.22999954 485759.86000061 0.69000000
142949.24000168 485758.84000015 15.00000000
142950.00000000 485759.68000031 0.66000003
142949.27000046 485758.93999863 10.13000011
142949.33000183 485759.00000000 9.05000019
142949.04999924 485758.75999832 10.09000015
142948.40000153 485758.18000031 13.94999981
142948.81000137 485758.65000153 5.71999979
142948.09000015 485757.91999817 15.53999996
142948.70000076 485758.59999847 3.44000006
142948.36999893 485758.29999924 5.36999989
142948.54000092 485758.49000168 1.96000004
142947.63000107 485757.54000092 15.75000000
142948.34000015 485758.34999847 1.21000004
142947.41999817 485757.38000107 15.52000046
142948.11999893 485758.18000031 0.93000001
142947.25999832 485757.27999878 14.02999973
142947.40000153 485757.43999863 11.19999981
142947.88999939 485757.99000168 1.00000000
142947.04999924 485757.11999893 13.78999996
142947.22999954 485757.31999969 9.96000004
142947.68999863 485757.84999847 0.19000000
142946.74000168 485756.84000015 15.60000038
142947.25999832 485757.43999863 4.30999994
142946.50999832 485756.65000153 15.78999996
142946.61999893 485756.79000092 13.27999973
142946.81999969 485757.00999832 8.97999954
142946.38000107 485756.58000183 13.72999954
142946.43000031 485756.63999939 12.57999992
142946.13000107 485756.36999893 14.28999996
142945.97999954 485756.27999878 12.56999969
142945.79999924 485756.15999985 11.47999954
142945.86999893 485756.25000000 9.75000000
142945.52999878 485755.93000031 12.42000008
142945.72000122 485756.15000153 8.18999958
142945.47999954 485755.95999908 8.31999969
142945.16999817 485755.68999863 10.18999958
142945.24000168 485755.75999832 8.68000031
142944.90999985 485755.47000122 10.94999981
142950.27999878 485759.36000061 15.39999962
142950.06999969 485759.18999863 15.09000015
142949.79999924 485758.97000122 15.90999985
142950.22999954 485759.43999863 8.00000000
142949.54000092 485758.74000168 16.70999908
142949.70999908 485758.93999863 13.35999966
142949.41999817 485758.68999863 14.56999969
142949.52000046 485758.79000092 12.81999969
142949.25999832 485758.58000183 13.31000042
142949.36000061 485758.68999863 11.52000046
142949.91999817 485759.31999969 0.66000003
142949.22999954 485758.61999893 9.59000015
142949.29000092 485758.68999863 8.36999989
142948.72999954 485758.13999939 14.85999966
142948.86999893 485758.29000092 12.22999954
142948.54000092 485758.00000000 14.15999985
142949.24000168 485758.79000092 0.22000000
142948.81000137 485758.38000107 4.28000021
142948.84999847 485758.41999817 3.45000005
142948.52000046 485758.13000107 5.34000015
142948.59999847 485758.22000122 3.78999996
142948.70000076 485758.33000183 1.78999996
142948.27999878 485757.93999863 5.53999996
142948.47999954 485758.15999985 1.45000005
142947.74000168 485757.40000153 12.02000046
142947.79999924 485757.47000122 10.73999977
142948.29000092 485758.02000046 0.72000003
142947.38000107 485757.06000137 14.94999981
142947.43000031 485757.11999893 13.72000027
142947.08000183 485756.79999924 16.40999985
142947.38999939 485757.15000153 9.89000034
142946.97999954 485756.75999832 13.68999958
142946.72000122 485756.54999924 14.46000004
142946.90000153 485756.75000000 10.64000034
142947.33000183 485757.25000000 1.38999999
142946.43000031 485756.29000092 15.92000008
142946.66999817 485756.56000137 10.76000023
142946.24000168 485756.15000153 15.27999973
142946.43999863 485756.38000107 10.85999966
142946.50999832 485756.45999908 9.22999954
142946.08000183 485756.04000092 13.81999969
142946.27999878 485756.27999878 9.35999966
142945.86999893 485755.88000107 13.52999973
142946.04000092 485756.09000015 9.47999954
142945.75999832 485755.84999847 10.68000031
142945.99000168 485756.11000061 5.48999977
142945.41999817 485755.52999878 13.35999966
142945.47999954 485755.68999863 6.61999989
142944.93999863 485755.31999969 3.09999990
142950.77000046 485759.18000031 15.71000004
142950.58000183 485759.04999924 15.01000023
142950.36999893 485758.88999939 14.69999981
142950.68999863 485759.24000168 8.77999973
142950.04999924 485758.59999847 16.51000023
142949.79999924 485758.38999939 17.06999969
142949.83000183 485758.50000000 12.06999969
142949.90999985 485758.59000015 10.59000015
142950.04000092 485758.72999954 8.15999985
142949.70000076 485758.43000031 10.30000019
142949.83000183 485758.56999969 7.84000015
142949.47999954 485758.25999832 10.01000023
142949.61000061 485758.40000153 7.59000015
142949.27999878 485758.11000061 9.52999973
142948.72999954 485757.56999969 15.85999966
142949.18000031 485758.06000137 7.09999990
142949.59000015 485758.52000046 -1.00999999
142949.06000137 485758.00000000 4.96000004
142949.27999878 485758.25999832 0.47000000
142948.93000031 485757.93999863 2.92000008
142948.36000061 485757.36999893 9.73999977
142948.77000046 485757.84000015 1.37000000
142947.84999847 485756.86000061 15.71000004
142948.06999969 485757.11999893 11.02999973
142948.16999817 485757.31000137 4.34000015
142948.34000015 485757.50999832 0.58999997
142947.47000122 485756.59000015 14.18000031
142947.75000000 485756.91999817 8.10999966
142947.52000046 485756.72999954 8.27000046
142947.00999832 485756.22999954 14.27999973
142947.54999924 485756.84000015 2.70000005
142946.81999969 485756.09000015 13.55000019
142946.88999939 485756.16999817 12.02999973
142946.54000092 485755.84999847 14.68000031
142946.63999939 485755.95999908 12.48999977
142946.38999939 485755.75999832 12.97000027
142946.15999985 485755.56999969 13.22000027
142946.54000092 485756.00999832 4.71999979
142945.95000076 485755.40999985 12.82999992
142946.20000076 485755.70000076 7.01000023
142946.31000137 485755.83000183 4.65000010
142945.99000168 485755.54000092 6.69000006
142945.34000015 485754.95000076 11.14000034
142950.75000000 485758.74000168 13.98999977
142950.83000183 485758.81999969 12.65999985
142950.50000000 485758.52999878 14.51000023
142950.59999847 485758.65000153 12.60000038
142950.99000168 485759.06999969 5.53000021
142950.40000153 485758.49000168 12.19999981
142950.59000015 485758.70999908 8.55000019
142950.75999832 485758.88999939 5.46999979
142950.04999924 485758.18000031 14.42000008
142950.52999878 485758.70999908 5.34999990
142950.31000137 485758.52999878 5.26999998
142949.97000122 485758.29999924 2.94000006
142949.11999893 485757.43000031 15.10999966
142949.74000168 485758.13000107 2.79999995
142948.90000153 485757.25000000 14.98999977
142949.25999832 485757.65999985 7.82999992
142949.02000046 485757.45999908 8.06999969
142949.11000061 485757.56000137 6.28000021
142948.75999832 485757.25000000 8.68999958
142948.99000168 485757.50000000 4.07000017
142948.84000015 485757.40999985 2.46000004
142948.34999847 485756.93999863 7.65999985
142947.52999878 485756.15999985 15.35999966
142947.49000168 485756.20000076 11.34000015
142947.52999878 485756.31999969 5.61000013
142947.77000046 485756.59000015 0.49000001
142947.36999893 485756.22000122 4.15000010
142947.52999878 485756.40000153 0.58999997
142947.59000015 485756.47000122 -0.64999998
142946.70999908 485755.54000092 13.64000034
142947.13999939 485756.02999878 4.19999981
142946.66999817 485755.56999969 9.53999996
142946.81999969 485755.75000000 6.11999989
142946.25000000 485755.16999817 13.88000011
142946.43999863 485755.38999939 9.51000023
142946.56999969 485755.61999893 1.42999995
142945.95000076 485754.99000168 10.34000015
142946.11000061 485755.18000031 6.51999998
142951.02999878 485758.43999863 14.52999973
142950.93000031 485758.40000153 12.09000015
142951.20000076 485758.75999832 2.84999990
142951.04999924 485758.66999817 1.37000000
142950.81999969 485758.47999954 1.40999997
142949.75999832 485757.38999939 17.19000053
142949.86999893 485757.50999832 15.09000015
142950.59000015 485758.31000137 1.23000002
142949.54999924 485757.22999954 16.87000084
142949.63000107 485757.31999969 15.31000042
142950.00000000 485757.72000122 8.28999996
142950.36999893 485758.13000107 1.13999999
142949.66999817 485757.43000031 10.17000008
142949.79000092 485757.56000137 7.94000006
142949.40999985 485757.22000122 10.77000046
142949.50000000 485757.31999969 8.97999954
142948.91999817 485756.74000168 16.12999916
142949.08000183 485756.91999817 12.89000034
142949.24000168 485757.09000015 9.72999954
142949.50000000 485757.38000107 4.53999996
142948.84000015 485756.72000122 13.14999962
142949.27999878 485757.20999908 4.38000011
142949.36000061 485757.31000137 2.64000010
142948.59999847 485756.52000046 13.52999973
142948.90000153 485756.86999893 7.26000023
142949.02000046 485757.00000000 4.86000013
142948.31999969 485756.29000092 14.59000015
142948.63000107 485756.63999939 8.13000011
142948.90000153 485756.93999863 2.56999993
142948.52999878 485756.59999847 5.48999977
142948.66999817 485756.75000000 2.68000007
142948.29999924 485756.40999985 5.50000000
142948.56000137 485756.70999908 -0.05000000
142947.66999817 485755.77999878 14.03999996
142948.06999969 485756.24000168 5.46999979
142948.16999817 485756.34999847 3.34999990
142947.43999863 485755.59000015 14.17000008
142947.50999832 485755.68000031 12.56999969
142947.00999832 485755.25999832 13.71000004
142947.20999908 485755.49000168 9.27999973
142947.34000015 485755.63999939 6.44000006
142947.13999939 485755.58000183 0.54000002
142946.90999985 485755.38999939 0.56000000
142946.54999924 485755.04999924 3.59999990
142946.34999847 485754.90999985 2.79999995
142951.25999832 485758.41999817 12.06000042
142950.93000031 485758.13000107 13.92000008
142950.70000076 485757.93999863 14.13000011
142951.02999878 485758.38000107 3.59999990
142951.13999939 485758.50999832 1.40999997
142950.16999817 485757.50999832 15.39000034
142950.90999985 485758.33000183 1.35000002
142949.95000076 485757.33000183 15.36999989
142950.31000137 485757.72000122 8.60999966
142949.77999878 485757.20999908 14.28999996
142949.45000076 485756.91999817 16.34000015
142949.70999908 485757.20999908 11.31000042
142949.45000076 485756.99000168 12.02000046
142949.61000061 485757.16999817 8.81999969
142949.81000137 485757.38999939 4.96000004
142949.36999893 485756.97000122 9.11999989
142949.75000000 485757.40000153 1.38999999
142948.90000153 485756.52000046 13.85999966
142949.45000076 485757.13999939 2.76999998
142948.68000031 485756.34999847 13.81999969
142949.09999847 485756.83000183 5.13999987
142949.34999847 485757.09999847 0.09000000
142948.75000000 485756.50000000 7.71999979
142948.47000122 485756.27000046 8.67000008
142948.75000000 485756.59000015 2.81999993
142948.20999908 485756.04999924 9.35000038
142948.38999939 485756.25000000 5.51999998
142948.50999832 485756.38999939 3.06999993
142948.43000031 485756.36999893 -0.03000000
142947.54999924 485755.43999863 13.93000031
142947.70999908 485755.63000107 10.43999958
142947.77000046 485755.70999908 9.01000023
142948.20000076 485756.18999863 -0.10000000
142947.38000107 485755.33000183 12.73999977
142947.54000092 485755.52000046 9.17000008
142947.09000015 485755.08000183 13.97000027
142947.25999832 485755.27999878 10.23999977
142947.06000137 485755.13000107 9.71000004
142946.84000015 485754.95999908 9.47999954
142946.63000107 485754.79999924 9.06999969
142946.95000076 485755.15999985 1.94000006
142946.63999939 485754.90000153 3.57999992
142946.40999985 485754.70999908 3.63000011
142946.54000092 485754.86000061 0.60000002
142951.40999985 485757.88000107 15.02999973
142951.09000015 485757.59999847 16.75000000
142950.88999939 485757.45000076 16.34000015
142951.24000168 485757.83000183 9.82999992
142950.63999939 485757.25000000 16.77000046
142950.79000092 485757.40999985 14.03999996
142951.06000137 485757.68999863 9.09000015
142951.36999893 485758.04000092 3.18000007
142950.63999939 485757.31000137 12.60000038
142950.63000107 485757.36000061 8.57999992
142950.11999893 485756.86999893 13.97999954
142949.84000015 485756.63000107 15.03999996
142949.90000153 485756.70999908 13.72999954
142950.09000015 485756.90999985 10.06000042
142950.31000137 485757.15999985 5.76000023
142949.81999969 485756.68000031 11.00000000
142949.58000183 485756.49000168 11.18999958
142949.97000122 485756.91999817 3.44000006
142948.79000092 485755.81999969 13.55000019
142949.09999847 485756.16999817 7.23000002
142949.34999847 485756.45000076 1.99000001
142948.77999878 485755.88000107 9.03999996
142948.93999863 485756.06999969 5.63999987
142949.16999817 485756.31999969 0.98000002
142948.54999924 485755.70000076 9.07999992
142948.90999985 485756.11000061 1.55999994
142948.59999847 485755.83000183 3.22000003
142948.66999817 485755.91999817 1.66999996
142948.72000122 485755.97000122 0.60000002
142948.13999939 485755.38999939 8.19999981
142948.36000061 485755.63999939 3.48000002
142948.04000092 485755.36000061 5.15999985
142947.81999969 485755.18000031 5.13000011
142947.88000107 485755.25000000 3.85999990
142947.20999908 485754.56999969 13.51000023
142947.31999969 485754.68999863 11.15999985
142947.15000153 485754.58000183 9.81000042
142947.47000122 485754.93999863 2.69000006
142947.58000183 485755.06999969 0.16000000
142946.90999985 485754.38999939 10.07999992
142947.34999847 485754.88999939 0.16000000
142946.66999817 485754.18999863 10.35000038
142946.43999863 485754.00000000 10.48999977
142946.61999893 485754.29999924 0.94000000
142951.75000000 485757.72999954 15.22999954
142951.50999832 485757.52999878 15.63000011
142951.56000137 485757.59000015 14.61999989
142951.36999893 485757.43999863 14.06999969
142951.20000076 485757.31999969 13.02999973
142950.75999832 485756.91999817 16.90999985
142951.15999985 485757.34999847 9.48999977
142950.63000107 485756.83000183 15.25000000
142950.83000183 485757.04999924 11.50000000
142950.97000122 485757.20000076 8.84000015
142951.36000061 485757.63000107 1.37000000
142950.31999969 485756.56999969 16.79000092
142950.88000107 485757.18000031 6.17000008
142950.22000122 485756.52999878 14.40999985
142950.40999985 485756.72000122 10.90999985
142949.90999985 485756.25000000 16.13999939
142950.20999908 485756.56999969 10.35999966
142949.83000183 485756.22999954 13.35000038
142949.91999817 485756.33000183 11.56000042
142950.31000137 485756.75999832 3.88000011
142949.65999985 485756.18000031 7.75000000
142950.02000046 485756.58000183 0.50000000
142949.13999939 485755.66999817 13.61999989
142949.43000031 485756.00000000 7.65999985
142949.74000168 485756.34000015 1.40999997
142948.90999985 485755.49000168 13.63000011
142949.00000000 485755.59000015 11.77999973
142949.13000107 485755.74000168 9.18000031
142948.90000153 485755.54999924 9.21000004
142949.00999832 485755.68000031 6.78000021
142948.77000046 485755.47999954 7.07999992
142948.59000015 485755.36000061 6.01000023
142948.18999863 485754.97999954 9.65999985
142948.38000107 485755.20000076 5.59000015
142948.47000122 485755.29999924 3.67000008
142947.72000122 485754.52999878 14.89000034
142948.31000137 485755.20000076 2.06999993
142947.66999817 485754.54999924 11.15999985
142948.08000183 485755.00999832 2.20000005
142947.31999969 485754.22999954 13.77999973
142947.84000015 485754.81000137 2.43000007
142947.33000183 485754.31000137 8.67000008
142947.29000092 485754.34999847 4.38999987
142946.86000061 485753.93999863 8.85000038
142946.58000183 485753.68999863 10.14999962
142946.79000092 485753.93999863 5.19999981
142947.00000000 485754.18000031 0.44000000
142946.74000168 485753.95999908 1.13999999
142951.95000076 485757.38999939 13.93000031
142951.75999832 485757.24000168 13.27999973
142951.79000092 485757.34000015 8.52000046
142951.40000153 485756.97999954 11.64999962
142951.16999817 485756.81000137 11.52999973
142951.20999908 485756.90999985 6.53999996
142951.50999832 485757.22999954 0.97000003
142950.54000092 485756.25000000 15.01000023
142950.50000000 485756.27000046 11.47999954
142950.09999847 485755.90000153 14.76000023
142950.63000107 485756.47999954 4.40000010
142949.83000183 485755.68000031 15.64999962
142949.90999985 485755.75999832 14.09000015
142949.59999847 485755.49000168 15.81999969
142950.36000061 485756.31999969 0.69000000
142949.61000061 485755.56000137 11.17000008
142949.77000046 485755.74000168 7.88999987
142949.22000122 485755.20000076 14.43999958
142949.54000092 485755.56000137 7.82000017
142949.79000092 485755.84000015 2.81999993
142949.11000061 485755.22999954 7.36000013
142949.18999863 485755.31999969 5.59999990
142948.77999878 485754.93000031 9.52000046
142948.86999893 485755.02999878 7.67999983
142949.11999893 485755.31000137 2.50000000
142948.45999908 485754.63999939 11.51000023
142948.52999878 485754.72999954 9.93999958
142948.11000061 485754.34000015 13.93999958
142948.58000183 485754.84999847 4.03000021
142948.04000092 485754.31999969 10.82999992
142948.22000122 485754.52999878 6.86000013
142947.65000153 485753.95999908 14.36999989
142947.75999832 485754.09000015 11.77000046
142947.97000122 485754.33000183 7.17999983
142948.11999893 485754.49000168 3.96000004
142947.40999985 485753.77000046 14.60999966
142947.54000092 485753.90999985 11.81000042
142947.90999985 485754.34000015 3.47000003
142947.20999908 485753.61999893 14.00000000
142947.29999924 485753.72000122 12.03999996
142947.06999969 485753.52999878 12.15999985
142947.47000122 485753.99000168 3.06999993
142947.15999985 485753.70999908 4.88999987
142946.59999847 485753.22999954 7.26000023
142946.75000000 485753.40999985 3.59999990
142946.40999985 485753.09000015 6.36999989
142945.95000076 485752.72999954 6.32999992
142951.86999893 485757.00999832 14.23999977
142951.97999954 485757.13999939 12.13000011
142951.75999832 485756.95999908 11.97999954
142951.95999908 485757.18000031 8.35999966
142951.68000031 485756.93999863 9.31000042
142951.45000076 485756.75000000 9.39000034
142951.56999969 485756.88999939 7.07000017
142950.88999939 485756.22000122 15.48999977
142951.04000092 485756.38000107 12.77999973
142951.11000061 485756.45999908 11.36999989
142951.22999954 485756.65000153 4.76999998
142950.50000000 485755.93000031 14.40999985
142950.61999893 485756.04999924 12.22999954
142950.66999817 485756.11000061 11.11999989
142950.18999863 485755.65000153 16.13999939
142950.79000092 485756.29999924 4.50000000
142950.75000000 485756.33000183 0.73000002
142949.90999985 485755.47999954 12.69999981
142949.68000031 485755.29999924 12.81999969
142949.93000031 485755.65000153 3.10999990
142949.34999847 485755.13999939 5.63000011
142949.29000092 485755.15000153 2.18000007
142949.33000183 485755.20000076 1.13999999
142948.68999863 485754.54999924 9.89000034
142948.84999847 485754.74000168 6.40000010
142948.24000168 485754.11999893 14.65999985
142948.31999969 485754.22000122 12.89000034
142948.04000092 485753.97000122 14.11999989
142948.13999939 485754.09000015 11.88000011
142947.93000031 485753.93000031 11.50000000
142947.88999939 485753.95000076 7.55999994
142947.40000153 485753.47000122 13.35000038
142947.66999817 485753.79000092 7.15999985
142947.79000092 485753.91999817 4.59000015
142947.20000076 485753.33000183 12.68000031
142946.88000107 485753.11999893 9.51000023
142946.90000153 485753.22999954 3.73000002
142946.52000046 485752.86999893 7.42000008
142946.36000061 485752.77000046 5.65999985
142952.04000092 485756.59000015 15.82999992
142951.84999847 485756.45000076 15.22999954
142952.15999985 485756.77000046 9.69999981
142952.24000168 485756.86000061 8.17000008
142951.93000031 485756.59000015 9.65999985
142952.04000092 485756.70999908 7.61999989
142951.59000015 485756.29000092 11.72999954
142951.24000168 485755.97000122 14.10999966
142951.31000137 485756.04999924 12.71000004
142951.72999954 485756.50000000 4.86000013
142951.04000092 485755.81999969 13.57999992
142950.86000061 485755.70000076 12.60999966
142950.91999817 485755.75999832 11.46000004
142951.25999832 485756.11999893 5.09999990
142950.70999908 485755.59000015 11.27999973
142951.27000046 485756.20000076 0.38999999
142951.00999832 485755.99000168 0.94000000
142949.88000107 485754.88999939 14.18999958
142949.66999817 485754.72999954 13.86999989
142950.18000031 485755.29000092 3.54999995
142949.72999954 485754.93999863 3.38000011
142949.25999832 485754.47999954 8.43999958
142948.84999847 485754.11000061 12.10999966
142948.95999908 485754.22999954 9.89999962
142949.38000107 485754.68999863 1.10000002
142948.88999939 485754.22000122 6.46999979
142948.38000107 485753.72999954 12.55000019
142948.45999908 485753.81999969 10.80000019
142948.13000107 485753.52000046 13.05000019
142948.40000153 485753.90000153 2.05999994
142947.70000076 485753.18000031 12.76000023
142947.90999985 485753.41999817 7.90000010
142948.09999847 485753.63000107 3.78999996
142947.29000092 485752.95000076 6.51999998
142947.04000092 485752.74000168 6.96000004
142947.18000031 485752.90999985 3.66000009
142946.93999863 485752.72000122 3.75999999
142946.40000153 485752.25000000 5.78000021
142952.18000031 485756.31000137 15.19999981
142951.84999847 485756.09000015 12.94999981
142951.90999985 485756.13999939 11.93000031
142952.08000183 485756.33000183 8.73999977
142952.29000092 485756.56000137 4.80000019
142951.43000031 485755.68999863 16.60000038
142951.25999832 485755.56999969 15.63000011
142951.09999847 485755.47000122 14.27999973
142951.24000168 485755.61999893 11.71000004
142951.54999924 485755.95000076 5.75000000
142951.86000061 485756.29000092 -0.11000000
142951.36999893 485755.81999969 4.90000010
142950.79999924 485755.27000046 11.42000008
142951.34000015 485755.84999847 0.98000002
142949.95999908 485754.56000137 14.61999989
142950.25999832 485754.95999908 3.83999991
142950.00000000 485754.74000168 4.59999990
142949.77999878 485754.56999969 4.40999985
142949.27000046 485754.08000183 10.18999958
142949.34000015 485754.15000153 8.69999981
142949.59999847 485754.43999863 3.35999990
142948.91999817 485753.75999832 12.77000046
142949.47000122 485754.36999893 1.13999999
142948.65000153 485753.52999878 13.78999996
142948.81999969 485753.72000122 10.13000011
142948.99000168 485753.90999985 6.51000023
142949.06000137 485753.99000168 4.94999981
142948.54000092 485753.47999954 11.23999977
142948.29000092 485753.27000046 11.90999985
142947.97000122 485752.97999954 13.90999985
142948.31999969 485753.38000107 6.13999987
142948.54999924 485753.63999939 1.07000005
142947.79999924 485752.86999893 12.65999985
142948.13999939 485753.25000000 5.01999998
142948.20000076 485753.31999969 3.76999998
142947.65000153 485752.84999847 5.69999981
142947.45000076 485752.70000076 5.03000021
142952.33000183 485755.90000153 11.77000046
142952.11999893 485755.72999954 11.47000027
142951.75999832 485755.40999985 13.97000027
142952.00999832 485755.66999817 9.35999966
142951.43000031 485755.11999893 15.85999966
142951.63000107 485755.33000183 12.18999958
142951.93000031 485755.65999985 6.46999979
142951.36000061 485755.11000061 13.00000000
142951.72000122 485755.49000168 6.09999990
142950.77999878 485754.61000061 15.38000011
142950.97000122 485754.81000137 11.82999992
142951.50999832 485755.38999939 1.30999994
142950.65000153 485754.52999878 13.64000034
142951.34000015 485755.27999878 0.07000000
142950.93999863 485754.90999985 3.50000000
142950.56999969 485754.58000183 6.11000013
142950.65000153 485754.66999817 4.42000008
142950.34999847 485754.40999985 5.94999981
142950.43999863 485754.50999832 4.05999994
142949.72999954 485753.86000061 9.32999992
142950.13000107 485754.29999924 1.05999994
142949.79000092 485754.00999832 3.17000008
142949.09999847 485753.31000137 13.05000019
142949.38999939 485753.63999939 6.80999994
142949.65999985 485753.93000031 1.13999999
142949.16999817 485753.45999908 6.57999992
142949.27000046 485753.56999969 4.44000006
142949.18000031 485753.54000092 1.61000001
142948.45999908 485752.81999969 12.17000008
142948.93999863 485753.34999847 1.73000002
142948.24000168 485752.65000153 11.92000008
142948.00999832 485752.45999908 12.10999966
142948.22000122 485752.68999863 7.48000002
142947.68999863 485752.25000000 9.13000011
142947.75000000 485752.31000137 7.80999994
142952.72000122 485755.93000031 12.52999973
142952.52999878 485755.77999878 11.89000034
142951.81000137 485755.20999908 12.55000019
142952.06999969 485755.47999954 7.65999985
142951.40999985 485754.84000015 15.84000015
142951.61999893 485755.06000137 11.96000004
142951.91999817 485755.38999939 6.19000006
142951.99000168 485755.45999908 4.90999985
142952.04000092 485755.58000183 -0.52999997
142951.16999817 485754.70999908 11.84000015
142951.70999908 485755.29000092 1.46000004
142951.81000137 485755.38999939 -0.44000000
142950.77999878 485754.34999847 15.10000038
142950.93999863 485754.52000046 11.97999954
