142949.51499939 485751.57600021 2.49099994
142950.97100067 485750.56100082 8.71599960
142950.58900070 485750.85300064 7.27400017
142949.98699951 485751.42399979 5.88000011
142949.08800125 485752.11199951 2.50699997
142951.03699875 485750.71699905 10.57100010
142949.91799927 485751.57500076 6.38100004
142950.77999878 485751.01499939 10.38899994
142948.75999832 485752.66500092 3.60700011
142950.11700058 485751.72999954 9.51000023
142950.79399872 485751.31499863 12.84300041
142950.00899887 485751.91799927 9.92800045
142950.64400101 485751.52999878 13.05599976
142950.05899811 485751.98099899 10.88500023
142950.45399857 485751.77799988 13.14599991
142949.38899994 485752.59999847 9.20499992
142949.27299881 485752.79000092 9.56000042
142948.12699890 485753.77399826 6.06899977
142947.16099930 485754.52199936 2.50600004
142949.51800156 485752.79700089 11.98700047
142948.18700027 485753.83000183 7.08699989
142949.16699982 485753.17300034 11.47999954
142948.11000061 485753.99200058 7.59499979
142948.85800171 485753.52000046 11.18999958
142948.06399918 485754.13700104 8.27799988
142948.90999985 485753.57400131 12.10499954
142948.63899994 485753.78599930 11.11299992
142948.04299927 485754.24900055 8.92700005
142949.09999847 485753.53400040 13.63000011
142948.52899933 485753.97800064 11.54399967
142948.52199936 485754.07699966 12.25100040
142946.40200043 485755.72999954 4.51100016
142948.86199951 485753.91199875 14.24800014
142948.70000076 485754.13299942 14.39200020
142947.66199875 485755.15000153 12.22599983
142945.01300049 485757.32300186 3.42499995
142947.67800140 485755.33700180 13.82400036
142946.81200027 485756.01599884 10.70100021
142946.38399887 485756.35300064 9.15499973
142946.81900024 485756.11199951 11.49800014
142946.57799911 485756.29800034 10.63599968
142946.16899872 485756.71300125 9.88000011
142944.53200150 485758.10100174 4.78200006
142946.81200027 485756.40599823 13.73499966
142946.60499954 485756.56900024 12.99100018
142946.50400162 485756.75299835 13.43799973
142947.31900024 485756.20199966 17.06599998
142946.90599823 485756.53099823 15.58699989
142946.99700165 485756.56000137 16.71899986
142946.04199982 485757.40800095 14.04800034
142945.00199890 485758.23199844 10.34899998
142946.44800186 485757.18199921 16.21999931
142946.50799942 485757.22600174 17.14500046
142946.45700073 485757.36999893 17.76700020
142946.13299942 485757.62799835 16.61800003
142946.02299881 485757.81299973 16.99099922
142943.49000168 485759.92399979 8.82600021
142943.24499893 485760.21799850 8.72299957
142951.54199982 485749.81600189 4.65700006
142951.73099899 485749.77399826 6.15600014
142951.49599838 485749.95199966 5.26300001
142951.30799866 485750.09400177 4.55000019
142951.28200150 485750.21599960 5.24499989
142951.12900162 485750.33300018 4.65999985
142951.24200058 485750.34700012 5.87200022
142951.04999924 485750.60499954 5.99300003
142950.09299850 485751.33200073 2.38299990
142951.08700180 485750.68099976 6.95200014
142949.86399841 485751.61399841 2.33899999
142950.98099899 485750.86399841 7.34000015
142949.66199875 485751.87200165 2.38100004
142950.92900085 485751.01100159 7.96099997
142950.15200043 485751.70800018 5.85799980
142949.23099899 485752.41299820 2.41199994
142948.86800003 485752.69100189 1.04900002
142951.11600113 485751.06600189 10.22099972
142950.95299911 485751.29199982 10.40200043
142950.59299850 485751.67300034 9.85499954
142950.94100189 485751.51300049 11.98600006
142950.32699966 485751.98500061 9.70600033
142951.05199814 485751.52399826 13.14200020
142950.09199905 485752.26200104 9.57800007
142950.28900146 485752.22000122 11.14700031
142950.03400040 485752.41600037 10.20100021
142948.20100021 485753.93000031 4.17700005
142949.35400009 485753.13899994 9.21800041
142948.39199829 485753.88199997 5.66699982
142948.40299988 485753.97000122 6.44600010
142948.04700089 485754.24599838 5.13500023
142948.30400085 485754.15499878 6.92299986
142948.45399857 485754.14199829 8.28199959
142949.09600067 485753.74700165 11.41899967
142948.74499893 485754.01900101 10.13700008
142949.35200119 485753.64799881 13.14000034
142948.71300125 485754.14500046 10.80000019
142948.19800186 485754.54600143 8.91499996
142948.63800049 485754.30400085 11.31000042
142947.97399902 485754.91600037 9.61100006
142948.46900177 485754.62699890 12.18099976
142949.00999832 485754.30799866 14.93000031
142948.00600052 485755.29299927 12.84599972
142947.79100037 485755.46099854 12.07199955
142946.70100021 485756.42200089 8.94699955
142945.07600021 485757.69300079 3.08699989
142947.53599930 485755.86100006 12.69200039
142947.24499893 485756.08900070 11.64299965
142947.16500092 485756.24900055 12.11299992
142946.59500122 485756.69699860 10.06400013
142947.59799957 485756.00000000 14.38099957
142947.99499893 485755.79399872 16.61700058
142947.70199966 485756.02299881 15.56700039
142947.90399933 485755.96300125 17.06200027
142947.11000061 485756.68899918 14.98099995
142945.82400131 485757.70100021 10.39599991
142946.98199844 485756.88899994 15.29599953
142945.78400040 485757.83300018 11.03100014
142945.45700073 485758.09099960 9.86699963
142946.89199829 485757.05500031 15.72000027
142946.60699844 485757.28099823 14.70199966
142946.28799820 485757.53200150 13.57100010
142946.83200073 485757.19300079 16.22200012
142946.31499863 485757.69699860 15.12600040
142947.01499939 485757.24499893 18.38199997
142946.25299835 485757.84799957 15.68900013
142946.75699997 485757.55300140 18.26300049
142946.08000183 485758.08800125 15.87500000
142946.63600159 485757.74000168 18.54199982
142946.02399826 485758.22499847 16.38599968
142942.96500015 485760.76100159 6.40999985
142952.29100037 485749.81600189 6.48299980
142952.16899872 485749.90999985 6.01499987
142952.09000015 485750.07099915 6.51000023
142951.79899979 485750.29399872 5.40299988
142951.63499832 485750.41799927 4.78200006
142951.56999969 485750.56700134 5.30999994
142951.19300079 485750.85300064 3.88199997
142950.73799896 485751.19800186 2.15799999
142951.75400162 485750.53699875 6.85900021
142951.55599976 485750.68799973 6.10900021
142951.23099899 485751.04399872 5.71299982
142950.18899918 485751.83800125 1.77999997
142951.17599869 485751.18899918 6.30499983
142951.25400162 485751.23300171 7.41200018
142950.00000000 485752.19200134 2.70000005
142950.53099823 485751.88700104 5.48600006
142949.86299896 485752.39899826 2.97900009
142949.60699844 485752.69300079 2.78200006
142949.41400146 485752.84000015 2.06100011
142949.37099838 485752.97700119 2.71000004
142948.74499893 485753.56700134 1.19799995
142950.84600067 485752.15700150 10.63000011
142950.63999939 485752.42300034 10.69900036
142950.30500031 485752.77799988 10.20800018
142949.97200012 485753.03499985 8.97700024
142949.72800064 485753.32300186 8.85000038
142948.69400024 485754.12400055 5.02099991
142948.36100006 485754.38100052 3.78600001
142949.79299927 485753.36999893 9.83600044
142949.50500107 485753.59299850 8.77299976
142949.77999878 485753.48899841 10.63199997
142948.73300171 485754.40200043 7.57399988
142948.45600128 485754.61800003 6.55000019
142949.29299927 485754.06800079 10.39599991
142950.07600021 485753.56000137 14.07100010
142947.10599899 485755.97200012 3.98200011
142948.76200104 485754.77899933 10.77799988
142949.57099915 485754.24700165 14.48400021
142948.70899963 485754.91799927 11.34399986
142948.22299957 485755.29899979 9.56999969
142949.52799988 485754.38199997 15.11499977
142948.81200027 485754.94100189 12.51000023
142948.51200104 485755.17399979 11.42399979
142947.11100006 485756.57699966 8.71899986
142947.72200012 485756.19300079 11.66600037
142947.27399826 485756.64400101 10.81799984
142947.58100128 485756.60100174 13.45400047
142947.30199814 485756.81999969 12.45800018
142947.92800140 485756.42599869 15.47299957
142946.43799973 485757.59999847 10.13500023
142947.44400024 485756.90499878 14.50199986
142947.40299988 485757.03499985 15.11699963
142947.15700150 485757.32799911 15.00000000
142946.74000168 485757.65700150 13.51700020
142946.66999817 485757.80599976 13.97700024
142945.51800156 485758.71500015 9.88399982
142946.66699982 485757.90299988 14.71500015
142945.34600067 485758.94900131 10.02499962
142947.32199860 485757.48099899 17.80200005
142946.69300079 485757.98099899 15.56799984
142947.25400162 485757.63899994 18.35899925
142946.64799881 485758.11999893 16.21500015
142946.27399826 485758.41799927 14.89299965
142947.18999863 485757.78200150 18.84600067
142946.57400131 485758.27199936 16.66900063
142946.75699997 485758.22900009 18.11499977
142943.70600128 485760.84600067 8.83100033
142943.58599854 485761.03300095 9.11999989
142952.86899948 485749.61399841 6.35900021
142952.14500046 485750.16299820 3.59500003
142952.60900116 485749.91299820 6.16300011
142951.79299927 485750.53300095 3.05299997
142951.62400055 485750.75899887 3.18799996
142951.49499893 485750.96099854 3.49000001
142952.28099823 485750.46900177 7.29899979
142950.64500046 485751.82799911 1.97200000
142950.86999893 485751.75600052 3.60100007
142950.55199814 485751.99800110 2.40000010
142951.20800018 485751.61000061 5.74300003
142950.10100174 485752.45600128 1.57000005
142950.84299850 485751.98600006 5.12099981
142950.32300186 485752.38299942 3.16700006
142949.83399963 485752.86000061 2.12500000
142949.89899826 485752.90700150 3.12899995
142951.45500183 485751.92900085 10.62199974
142951.09400177 485752.20500183 9.27799988
142951.00699997 485752.37400055 9.74400043
142951.08499908 485752.41899872 10.84300041
142950.60300064 485752.88899994 9.82900047
142950.47600174 485753.08399963 10.09200001
142950.16299820 485753.42399979 9.71700001
142949.61100006 485753.95700073 8.48900032
142949.83700180 485753.88999939 10.16499996
142948.85300064 485754.65399933 6.54500008
142948.57099915 485754.96799850 6.24499989
142950.52799988 485753.55500031 14.27700043
142948.43899918 485755.27299881 7.34200001
142947.48400116 485756.01499939 3.84500003
142946.76200104 485756.57799911 1.19400001
142950.05699921 485754.11199951 14.03199959
142948.75199890 485755.13000107 9.25699997
142949.04800034 485754.99499893 11.07800007
142948.81999969 485755.17200089 10.24300003
142948.28499985 485755.69699860 9.13000011
142949.94400024 485754.50500107 15.96500015
142949.65100098 485754.73300171 14.90299988
142947.57500076 485756.55500031 8.89900017
142947.28099823 485756.88299942 8.60599995
142945.78799820 485758.05199814 3.21099997
142947.81499863 485756.55699921 11.27200031
142947.09500122 485757.12400055 8.66800022
142949.00199890 485755.72700119 16.31900024
142948.85599899 485755.94100189 16.56399918
142947.58200073 485756.94200134 11.98600006
142948.02199936 485756.70000076 14.38500023
142947.67699814 485756.97299957 13.14799976
142946.49000168 485757.90599823 8.88799953
142948.21500015 485756.63899994 15.78299999
142947.78200150 485756.97999954 14.23200035
142945.22900009 485759.09999847 5.91099977
142947.46699905 485757.42599869 14.62800026
142948.06499863 485757.04899979 17.52700043
142947.43600082 485757.54700089 15.27700043
142947.01699829 485757.87900162 13.78899956
142944.64799881 485759.84600067 6.07800007
142947.99800110 485757.29800034 18.78700066
142947.82899857 485757.43099976 18.19000053
142947.47900009 485757.70800018 16.94799995
142946.45399857 485758.61899948 14.08500004
142946.98600006 485758.29199982 16.70299911
142946.81999969 485758.42300034 16.11899948
142944.28699875 485760.53499985 7.94000006
142943.75999832 485760.95600128 6.07399988
142944.34999847 485760.58300018 8.91699982
142943.61500168 485761.26200104 7.05499983
142943.38199997 485761.84000015 9.28299999
142952.33100128 485750.34400177 3.59699988
142952.77500153 485750.10699844 6.05499983
142952.11100006 485750.60900116 3.52999997
142952.53599930 485750.39099884 5.94600010
142951.99499893 485750.80099869 3.89299989
142951.52700043 485751.15700150 2.10500002
142951.78300095 485751.06900024 3.91499996
142951.33900070 485751.40700150 2.22499990
142950.92900085 485751.71699905 0.67100000
142951.70800018 485751.33800125 5.26300001
142951.34400177 485751.72399902 4.74700022
142950.36199951 485752.47499847 1.03600001
142951.30400085 485751.85599899 5.36600018
142950.94900131 485752.12699890 4.02699995
142950.25199890 485752.65800095 1.40900004
142951.00799942 485752.18399811 5.04699993
142950.59400177 485752.50099945 3.48900008
142950.81700134 485752.42699814 5.08699989
142950.52299881 485752.65100098 3.98699999
142949.66699982 485753.41799927 1.64100003
142951.46200180 485752.25000000 9.97099972
142951.18500137 485752.56600189 9.73600006
142951.22000122 485752.64099884 10.66300011
142950.96500015 485752.83700180 9.71700001
142950.74800110 485753.09999847 9.64700031
142950.89699936 485753.08499908 10.97399998
142950.54700089 485753.35400009 9.68099976
142950.79499817 485753.26900101 11.40799999
142950.09899902 485753.91199875 9.66800022
142949.74900055 485754.18399811 8.37800026
142949.44800186 485754.51300049 8.02499962
142950.90499878 485753.49000168 14.20400047
142951.24200058 485753.32400131 16.17700005
142950.75199890 485753.70399857 14.38099957
142951.23500061 485753.42699814 16.91300011
142950.78200150 485753.77999878 15.24899960
142946.93399811 485756.76900101 1.16299999
142951.11700058 485753.61299896 17.20199966
142950.18199921 485754.34099960 13.78800011
142946.84999847 485756.93099976 1.60800004
142950.45299911 485754.23600006 15.61100006
142949.10800171 485755.28499985 10.70100021
142950.35400009 485754.41400146 16.01399994
142950.20899963 485754.62599945 16.25799942
142949.74000168 485754.99200058 14.55399990
142946.58599854 485757.55500031 3.89700007
142949.38899994 485755.46400070 14.81200027
142947.59600067 485756.86600113 8.32199955
142946.04199982 485758.08000183 2.69799995
142946.09099960 485758.13899994 3.62299991
142945.87099838 485758.31200027 2.82800007
142949.43700027 485755.61700058 16.46400070
142947.90599823 485756.81499863 10.94299984
142949.43899918 485755.71699905 17.25699997
142949.10300064 485755.98099899 16.04500008
142948.99000168 485756.17200089 16.43400002
142947.87900162 485757.04399872 12.44400024
142947.02500153 485757.80899811 10.10599995
142945.60699844 485758.92399979 5.01900005
142946.10599899 485758.83000183 9.13899994
142948.18399811 485757.28099823 17.25000000
142947.46200180 485757.85200119 14.67700005
142947.03300095 485758.29600143 13.97299957
142948.12099838 485757.53499985 18.59799957
142948.02999878 485757.70100021 19.01000023
142947.77500153 485757.90100098 18.11199951
142947.15000153 485758.39699936 15.89599991
142947.65000153 485758.10100174 18.43000031
142947.31499863 485758.36500168 17.24799919
142947.42599869 485758.37099838 18.37299919
142947.25500107 485758.59999847 18.48600006
142943.75199890 485761.47999954 6.89300013
142943.50699997 485761.67699814 6.02799988
142944.05500031 485761.34299850 8.74300003
142943.42300034 485761.84500122 6.52699995
142943.78300095 485761.66199875 8.59899998
142943.31800079 485762.03400040 6.96999979
142943.12699890 485762.18500137 6.29799986
142943.75199890 485761.77899933 9.19799995
142952.99599838 485750.01800156 3.84299994
142952.89699936 485750.19400024 4.27699995
142953.13600159 485750.11500168 5.95300007
142952.51100159 485750.58700180 3.56800008
142952.92800140 485750.37699890 5.96899986
142952.19300079 485750.93299866 3.17000008
142952.58599854 485750.74499893 5.50600004
142951.96200180 485751.21699905 3.13599992
142951.65800095 485751.44800186 1.97599995
142951.25899887 485751.75099945 0.45899999
142951.96099854 485751.33000183 3.99900007
142952.03799820 485751.36899948 5.04799986
142951.85100174 485751.50999832 4.34100008
142951.20700073 485752.00000000 1.90199995
142952.08900070 485751.44300079 6.10200024
142951.49499893 485752.09700012 5.43200016
142950.35699844 485752.96599960 1.14900005
142951.68399811 485752.04999924 6.89799976
142951.51599884 485752.17900085 6.26900005
142951.09700012 485752.49900055 4.69399977
142949.47999954 485753.84899902 -0.51200002
142950.43999863 485753.21699905 3.91000009
142949.75299835 485753.74399948 1.34000003
142949.51800156 485753.92499924 0.46000001
142951.76300049 485752.30400085 9.64400005
142949.81399918 485754.00899887 3.97799993
142949.04899979 485754.59600067 1.13499999
142951.16400146 485753.06700134 9.76700020
142951.09000015 485753.22499847 10.26799965
142950.90299988 485753.47399902 10.37699986
142949.05899811 485755.00500107 4.39799976
142948.73300171 485755.25699997 3.18799996
142950.04399872 485754.34000015 8.77400017
142948.59400177 485755.45999908 3.42700005
142950.95800018 485753.74000168 12.97399998
142949.93899918 485754.52999878 9.22799969
142949.47100067 485754.89099884 7.50500011
142951.41400146 485753.48199844 15.38700008
142951.25699997 485753.70299911 15.59099960
142950.82199860 485754.04000092 13.99400043
142951.37099838 485753.70800018 16.72900009
142950.97299957 485754.01699829 15.26900005
142950.70600128 485754.22299957 14.29199982
142951.33100128 485753.84400177 17.38999939
142950.74900055 485754.29600143 15.26799965
142950.97000122 485754.22499847 16.85799980
142950.85200119 485754.41500092 17.18099976
142950.40000153 485754.76800156 15.53600025
142949.94699860 485755.12200165 13.88500023
142950.71400070 485754.62599945 17.46800041
142950.29999924 485754.95000076 15.96899986
142949.81200027 485755.33000183 14.19499969
142950.44100189 485754.93700027 17.23399925
142949.81200027 485755.52099991 15.67800045
142949.51499939 485755.75299835 14.60200024
142949.37200165 485755.96200180 14.84200001
142948.19300079 485756.88399887 10.58100033
142947.87400055 485757.13499832 9.42599964
142949.41299820 485756.02899933 15.75899982
142948.10599899 485757.05300140 11.04899979
142948.07500076 485757.18299866 11.76299953
142947.55500031 485757.68399811 10.61400032
142949.26699829 485756.53699875 18.29299927
142947.76499939 485757.81600189 13.65999985
142948.10300064 485757.63999939 15.58300018
142947.54600143 485758.08000183 13.59700012
142947.90499878 485757.90000153 15.68400002
142947.82899857 485758.06200027 16.19400024
142947.59299850 485758.24800110 15.35900021
142947.71200180 485758.24800110 16.51600075
142947.70399857 485758.35499954 17.26199913
142947.57500076 485758.55199814 17.54400063
142947.50099945 485758.70100021 17.97999954
142945.41799927 485760.45000076 11.38300037
142944.38899994 485761.26900101 7.76000023
142944.28099823 485761.45600128 8.15200043
142943.54399872 485762.04000092 5.56699991
142944.13000107 485761.68299866 8.44699955
142944.22800064 485761.69599915 9.50399971
142944.06299973 485761.82699966 8.92800045
142943.94400024 485762.02700043 9.31999969
142943.92200089 485762.13600159 9.95100021
142943.77000046 485762.25699997 9.41899967
142953.22200012 485750.33000183 2.87199998
142953.05500031 485750.55400085 2.99900007
142952.79600143 485750.74900055 2.00600004
142952.38499832 485751.06000137 0.43399999
142952.26100159 485751.25899887 0.78700000
142952.86899948 485750.89699936 3.87800002
142952.16199875 485751.43299866 1.17600000
142953.10400009 485750.83300018 5.64900017
142952.67499924 485751.15700150 4.02099991
142951.96599960 485751.69699860 1.31400001
142952.71500015 485751.23300171 4.99100018
142951.79800034 485751.93099976 1.50300002
142952.41999817 485751.56299973 4.68800020
142953.33000183 485750.97700119 8.95899963
142952.69400024 485751.46099854 6.55499983
142952.34899902 485751.72399902 5.24700022
142952.08399963 485751.92599869 4.24200010
142950.61600113 485753.34999847 1.06799996
142951.46099854 485752.81100082 5.08099985
142950.42599869 485753.60400009 1.19299996
142950.24499893 485753.74100113 0.51099998
142951.01599884 485753.26100159 4.26100016
142950.12599945 485753.94400024 0.92100000
142950.65800095 485753.63600159 3.68600011
142949.92200089 485754.20100021 0.93599999
142951.10599899 485753.40100098 6.21899986
142950.29299927 485754.02500153 3.18199992
142949.70999908 485754.47399902 1.00399995
142950.91799927 485753.64199829 6.27199984
142950.41899872 485754.02600098 4.41099977
142949.93199921 485754.50299835 3.38299990
142951.47800064 485753.40800095 9.88399982
142952.33399963 485752.95999908 14.71500015
142951.18000031 485753.85200119 10.43999958
142952.15700150 485753.19400024 14.82100010
142951.86000061 485753.42300034 13.72500038
142951.64899826 485753.68899918 13.75000000
142951.47999954 485753.91899872 13.88399982
142951.22499847 485754.11700058 12.94499969
142951.48600006 485754.00999832 14.64500046
142949.59199905 485755.47999954 7.68900013
142949.30899811 485755.70000076 6.65000010
142951.32600021 485754.23199844 14.81900024
142950.69200134 485754.82899857 13.29399967
142949.02399826 485756.23300171 8.02999973
142950.64300156 485755.06499863 14.66399956
142950.86600113 485754.99800110 16.29999924
142950.56900024 485755.22999954 15.21599960
142950.15999985 485755.54999924 13.72900009
142950.70399857 485755.21599960 16.42499924
142950.07600021 485755.70700073 14.14099979
142950.07099915 485755.81000137 14.89099979
142950.37799835 485755.66299820 16.72400093
142950.02399826 485755.93999863 15.44799995
142949.56100082 485756.30300140 13.77099991
142949.70700073 485756.29199982 15.11900043
142948.40599823 485757.31100082 10.42000008
142949.56000137 485756.50799942 15.36400032
142949.31700134 485756.69800186 14.48600006
142948.41699982 485757.40599823 11.24199963
142950.09299850 485756.18500137 18.02899933
142949.60200119 485756.57300186 16.25699997
142950.10300064 485756.27399826 18.83699989
142949.59299850 485756.67599869 17.00399971
142949.96300125 485756.48099899 19.08200073
142945.56800079 485760.04000092 4.06500006
142948.23500061 485758.03400040 14.36299992
142947.95299911 485758.25500107 13.35599995
142945.52500153 485760.17200089 4.68200016
142948.23099899 485758.13499832 15.12199974
142947.82699966 485758.55899811 14.49300003
142947.75299835 485758.70800018 14.93599987
142946.15299988 485759.97399902 9.25300026
142946.75899887 485759.60100174 12.22599983
142947.79899979 485758.86600113 16.61499977
142947.69300079 485759.04700089 16.99200058
142944.78699875 485761.44800186 7.44799995
142944.40100098 485761.75699997 6.08400011
142945.89799881 485760.76699829 12.93099976
142944.58000183 485761.81800079 8.29599953
142946.08900070 485760.70999908 14.34200001
142945.81299973 485760.92900085 13.37600040
142945.61600113 485761.08700180 12.68299961
142945.90700150 485760.95500183 14.47900009
142943.58100128 485762.90900040 7.09700012
142952.60599899 485751.46699905 1.23599994
142952.31600189 485751.79999924 1.00000000
142952.98600006 485751.39799881 4.39900017
142953.27399826 485751.28200150 6.28100014
142953.04399872 485751.45800018 5.40899992
142953.01399994 485751.58599854 6.12400007
142952.52199936 485752.06700134 5.07100010
142953.63800049 485751.31200027 10.05300045
142953.32199860 485751.55300140 8.85700035
142953.16099930 485751.77799988 9.04199982
142951.79399872 485752.82300186 3.88599992
142951.55099869 485753.11399841 3.78800011
142951.34700012 485753.26800156 3.02399993
142953.49599838 485751.73400116 11.95400047
142953.29999924 485751.97999954 11.96599960
142953.26399994 485752.11700058 12.68299961
142950.95600128 485753.98699951 4.80900002
142949.69900131 485755.05699921 0.91700000
142950.11399841 485754.83399963 3.22000003
142949.51699829 485755.29399872 1.00100005
142949.31600189 485755.55799866 1.10699999
142949.37300110 485755.61999893 2.13700008
142952.55400085 485753.26300049 14.70400047
142952.18000031 485753.55199814 13.31799984
142951.40800095 485754.15000153 10.45800018
142951.98699951 485753.80400085 13.41499996
142951.99200058 485753.90000153 14.20400047
142951.54800034 485754.33900070 13.30099964
142952.31700134 485753.83800125 16.88400078
142952.06900024 485754.02999878 15.97399998
142951.71300125 485754.30699921 14.66300011
142951.26900101 485754.65100098 13.03699970
142949.99499893 485755.64199829 8.35400009
142951.19400024 485754.81299973 13.55300045
142951.10400009 485754.98799896 14.04500008
142951.46400070 485754.80300140 16.10099983
142951.02799988 485755.14300156 14.51099968
142949.10200119 485756.64400101 7.48000002
142951.70999908 485754.71799850 17.80900002
142950.76100159 485755.45800018 14.35299969
142951.01499939 485755.35400009 16.00699997
142950.87599945 485755.46099854 15.50300026
142950.27899933 485755.92900085 13.32699966
142950.42200089 485755.91199875 14.59799957
142950.66899872 485755.81299973 16.21800041
142950.19400024 485756.18399811 14.49400043
142950.98600006 485755.66899872 18.17499924
142950.54000092 485756.01699829 16.56399918
142950.25000000 485756.24499893 15.51399994
142950.00199890 485756.43799973 14.61900043
142949.56800079 485756.77999878 13.04500008
142950.80699921 485755.90900040 18.31699944
142950.78799820 485756.02000046 19.00200081
142950.41999817 485756.31000137 17.67499924
142949.88499832 485756.72999954 15.74699974
142950.08800125 485756.66799927 17.25099945
142950.22200012 485756.65999985 18.48200035
142949.51100159 485757.31100082 16.63199997
142949.48199844 485757.42800140 17.28000069
142948.49599838 485758.20800018 13.74699974
142948.02399826 485758.68099976 12.85200024
142946.69200134 485759.73400116 8.09599972
142948.55899811 485758.36199951 15.56799984
142947.27000046 485759.47399902 11.69400024
142946.46599960 485760.11000061 8.83500004
142947.08800125 485759.72200012 11.85999966
142945.54800034 485761.03400040 7.10500002
142945.81499863 485760.91799927 8.81299973
142945.56900024 485761.11500168 7.94199991
142944.83800125 485761.69599915 5.35500002
142945.88299942 485760.95899963 9.78199959
142946.65800095 485760.44599915 13.33600044
142946.31900024 485760.91299820 13.64700031
142944.95700073 485761.99800110 8.86499977
142946.12799835 485761.16099930 13.73400021
142953.38499832 485750.99700165 1.88900006
142953.30500031 485751.15700150 2.34899998
142952.77899933 485751.66899872 1.22700000
142953.79000092 485751.00999832 5.92199993
142953.45100021 485751.36899948 5.42500019
142953.03599930 485751.68399811 3.84599996
142953.88899994 485751.14500046 7.92199993
142953.58000183 485751.37900162 6.74900007
142952.79399872 485751.97700119 3.76300001
142952.92699814 485751.97800064 5.06599998
142952.52999878 485752.28099823 3.55999994
142953.51300049 485751.63299942 8.05799961
142952.64300156 485752.29499817 4.76499987
142952.31499863 485752.54399872 3.52800012
142953.68799973 485751.60100174 9.49800014
142953.02600098 485752.10499954 7.00000000
142952.36299896 485752.60900116 4.49900007
142952.89099884 485752.31499863 7.32800007
142952.13800049 485752.88899994 4.48600006
142952.01399994 485753.09500122 4.87799978
142951.83900070 485753.22900009 4.22300005
142952.85200119 485752.54800034 8.78400040
142951.69100189 485753.43700027 4.42100000
142953.49399948 485752.16899872 12.04100037
142953.11500168 485752.45899963 10.62300014
142951.32699966 485753.92499924 4.67500019
142950.90299988 485754.25099945 3.09100008
142951.98400116 485753.52500153 7.93300009
142951.35300064 485754.00899887 5.58099985
142950.87300110 485754.37699890 3.78699994
142951.82799911 485753.74000168 8.10599995
142950.65100098 485754.64599991 3.71399999
142949.46500015 485755.77500153 0.98400003
142949.55699921 485755.80599976 2.11700010
142949.11100006 485756.25600052 1.29999995
142949.66899872 485755.92599869 4.13800001
142949.32099915 485756.19599915 2.85100007
142949.61600113 485756.06700134 4.70300007
142949.05300140 485756.50199890 2.62800002
142952.50799942 485753.92399979 16.12199974
142952.50199890 485754.02999878 16.88599968
142952.16299820 485754.29299927 15.64400005
142952.36100006 485754.24499893 17.19099998
142951.85699844 485754.63600159 15.34700012
142951.19499969 485755.15200043 12.92099953
142952.18399811 485754.47600174 17.26300049
142951.10100174 485755.31900024 13.30399990
142952.13999939 485754.61700058 17.92900085
142949.18199921 485756.91999817 7.13299990
142951.83499908 485754.94499969 17.53199959
142951.06499863 485755.54700089 14.72200012
142950.80599976 485755.84700012 14.54199982
142951.13199997 485755.68600082 16.45800018
142950.81299973 485755.93600082 15.29699993
142951.09000015 485755.82300186 17.11000061
142950.73600006 485756.09999847 15.82999992
142951.02700043 485755.97399902 17.66300011
142950.24300003 485756.58599854 14.83399963
142949.73600006 485756.98400116 12.99499989
142950.98400116 485756.10300064 18.25900078
142949.51800156 485757.25199890 12.96599960
142949.99499893 485756.97900009 15.47700024
142950.11399841 485756.98199844 16.65399933
142950.25000000 485756.96599960 17.85300064
142949.90299988 485757.23899841 16.60600090
142950.17800140 485757.11999893 18.34799957
142949.78799820 485757.42599869 16.94799995
142948.65000153 485758.32099915 12.87300014
142949.07899857 485758.08300018 15.17500019
142948.78200150 485758.31800079 14.11200047
142948.37599945 485758.63700104 12.65799999
142946.84899902 485759.94800186 8.03999996
142946.50899887 485760.21699905 6.82499981
142945.94200134 485760.66500092 4.80200005
142948.75000000 485758.53900146 15.52700043
142948.44699860 485758.77799988 14.44799995
142947.34400177 485759.75600052 11.34099960
142949.17200089 485758.40100098 18.54999924
142949.12599945 485758.53200150 19.11599922
142946.16199875 485760.97299957 9.34099960
142947.33300018 485760.14699936 14.28499985
142946.13499832 485761.09899902 10.05300045
142946.86199951 485760.62099838 13.40799999
142946.57500076 485760.84999847 12.39400005
142945.32600021 485761.84400177 7.99100018
142946.61600113 485760.91099930 13.27299976
142946.36800003 485761.39599991 14.61299992
142954.06600189 485751.10499954 5.51499987
142953.73799896 485751.35200119 4.26100016
142953.87699890 485751.34700012 5.56300020
142953.63000107 485751.53300095 4.62699986
142954.22200012 485751.19900131 7.75500011
142953.16899872 485751.99700165 3.75500011
142954.11800003 485751.37599945 8.11499977
142953.20399857 485752.06800079 4.64900017
142953.80899811 485751.71200180 7.73099995
142953.43299866 485752.09500122 7.06799984
142952.86899948 485752.52600098 4.93200016
142953.22900009 485752.36100006 7.15100002
142952.63899994 485752.81100082 4.92500019
142954.03400040 485751.85300064 11.02099991
142953.38899994 485752.34600067 8.58800030
142954.05099869 485751.94300079 11.86999989
142953.42200089 485752.42300034 9.50399971
142953.09000015 485752.67699814 8.25599957
142953.44699860 485752.50799942 10.41600037
142953.65800095 485752.44699860 11.98299980
142951.83000183 485753.94400024 5.88800001
142951.38499832 485754.28499985 4.22399998
142951.42900085 485754.35200119 5.18400002
142951.15000153 485754.56700134 4.13800001
142951.26300049 485754.58599854 5.38199997
142951.03900146 485754.75899887 4.54799986
142950.85400009 485754.90200043 3.85899997
142951.02299881 485754.88299942 5.35599995
142950.48300171 485755.29899979 3.34699988
142950.95399857 485755.03400040 5.84999990
142950.16400146 485755.64099884 2.92000008
142949.81200027 485756.02399826 2.47199988
142949.38700104 485756.35100174 0.90100002
142949.80099869 485756.12900162 3.17799997
142949.18899918 485756.59999847 0.92299998
142948.98899841 485756.85699844 0.96799999
142952.74399948 485754.15299988 16.38400078
142952.24900055 485754.64099884 15.36400032
142952.24000168 485754.74499893 16.09000015
142951.93899918 485754.97999954 14.98600006
142951.52199936 485755.30400085 13.45899963
142952.27899933 485754.81600189 17.01000023
142952.04899979 485754.99399948 16.17000008
142951.55199814 485755.38100052 14.35400009
142950.90299988 485755.88499832 11.98499966
142951.84999847 485755.24700165 16.20299911
142951.02399826 485755.89099884 13.19099998
142949.27999878 485757.24800110 6.83099985
142949.43099976 485757.22600174 8.11299992
142947.57500076 485758.67300034 1.35300004
142949.21900177 485757.49200058 8.13000011
142951.34799957 485756.03799820 17.45800018
142950.83800125 485756.43700027 15.61299992
142950.36600113 485756.80599976 13.90600014
142949.86000061 485757.20000076 12.07800007
142950.85200119 485756.51800156 16.37800026
142950.09999847 485757.10699844 13.65900040
142951.06800079 485756.45199966 17.96999931
142950.13100052 485757.18600082 14.59000015
142950.12400055 485757.28400040 15.27999973
142950.12500000 485757.38000107 16.03700066
142949.15100098 485758.14500046 12.53499985
142950.07899857 485757.50999832 16.60099983
142948.90599823 485758.43399811 12.39000034
142949.83399963 485757.80599976 16.53000069
142950.30699921 485757.53200150 18.99799919
142950.02799988 485757.75299835 17.99699974
142949.55899811 485758.21699905 17.06100082
142949.41899872 485758.42599869 17.32500076
142948.67100143 485759.01699829 14.65999985
142949.39799881 485758.54000092 18.00799942
142949.35300064 485758.66600037 18.55400085
142948.93799973 485758.99399948 17.07799911
142949.14699936 485758.92599869 18.55999947
142948.85800171 485759.15299988 17.54100037
142948.40299988 485759.61299896 16.68799973
142947.64500046 485760.21099854 14.01599979
142947.03699875 485760.79899979 12.66100025
142946.99000168 485760.92599869 13.21500015
142946.71099854 485761.15000153 12.22299957
142946.73600006 485761.23400116 13.11699963
142945.81800079 485761.96500015 9.88399982
142946.64099884 485761.40200043 13.50800037
142945.73500061 485762.12599945 10.31999969
142946.66699982 485761.47700119 14.33199978
142953.88999939 485751.78499985 3.82299995
142954.06900024 485752.06200027 7.71600008
142953.81000137 485752.36899948 7.58900023
142952.84999847 485753.20700073 4.77899981
142954.55899811 485752.00400162 12.01799965
142954.30699921 485752.19499969 11.07100010
142953.68899918 485752.66799927 8.73700047
142953.40200043 485752.88800049 7.66099977
142954.03200150 485752.50999832 10.86100006
142953.32699966 485753.05199814 8.20400047
142954.41400146 485752.31900024 13.07400036
142953.91299820 485752.70299911 11.19699955
142953.79000092 485752.89300156 11.47599983
142954.03400040 485752.80699921 13.17599964
142952.10699844 485754.59500122 8.38899994
142950.56299973 485755.89699936 3.50799990
142949.12300110 485757.10699844 -1.05900002
142949.64799881 485756.80300140 1.66999996
142949.21099854 485757.14099884 0.05700000
142952.16299820 485754.95199966 11.70899963
142950.24100113 485756.44300079 4.61499977
142949.99700165 485756.63100052 3.71600008
142949.35200119 485757.13000107 1.33800006
142952.70800018 485754.63600159 14.54199982
142949.37599945 485757.22100067 2.26999998
142952.56200027 485754.85200119 14.80399990
142949.35200119 485757.34500122 3.00399995
142952.29600143 485755.15700150 14.58399963
142952.03300095 485755.36000061 13.61900043
142949.50500107 485757.32400131 4.35099983
142952.24599838 485755.29800034 15.20199966
142951.67200089 485755.74499893 13.10400009
142951.11100006 485756.18299866 11.04500008
142949.47100067 485757.45700073 5.04600000
142952.30400085 485755.34999847 16.17700005
142951.64699936 485755.86399841 13.77600002
142952.74100113 485755.10300064 18.48900032
142952.57199860 485755.23500061 17.87500000
142952.31700134 485755.43299866 16.94700050
142951.98400116 485755.69200134 15.73299980
142950.46900177 485756.87500000 10.19900036
142952.43000031 485755.44400024 18.10000038
142952.22200012 485755.60499954 17.34700012
142951.94800186 485755.81900024 16.34799957
142950.34099960 485757.07400131 10.49300003
142949.95999908 485757.37099838 9.10799980
142952.22900009 485755.70000076 18.15299988
142950.04499817 485757.40599823 10.21599960
142950.36399841 485757.26399994 12.20899963
142950.84799957 485756.97900009 14.69299984
142951.26800156 485756.75500107 17.02099991
142950.75699997 485757.15499878 15.17700005
142950.40200043 485757.43399811 13.89500046
142948.54999924 485758.98099899 7.93499994
142947.37699890 485759.90000153 3.71099997
142951.16600037 485757.02099991 18.11800003
142946.43299866 485760.83499908 1.82400000
142947.92699814 485759.76699829 8.01299953
142947.59000015 485760.03200150 6.80299997
142946.43999863 485760.93500137 2.68199992
142950.40100098 485757.91699982 17.66799927
142950.28300095 485758.10699844 17.99600029
142949.52500153 485758.70399857 15.28499985
142949.38299942 485758.81700134 14.77700043
142950.23300171 485758.24399948 18.58200073
142950.14199829 485758.41199875 19.00099945
142949.68799973 485758.77099991 17.38500023
142949.29000092 485759.17699814 16.67300034
142949.44499969 485759.14899826 17.97800064
142948.82699966 485759.73699951 16.54000092
142948.03300095 485760.36600113 13.72999954
142947.59500122 485760.71500015 12.17500019
142947.40299988 485760.97200012 12.31400013
142948.07199860 485760.53200150 15.39000034
142947.29800034 485761.14699936 12.65799999
142947.17699814 485761.34600067 13.03600025
142948.01399994 485760.77000046 16.67700005
142947.35100174 485761.39500046 15.08800030
142946.98699951 485761.68399811 13.81400013
142947.77299881 485761.14899826 17.28599930
142947.32600021 485761.50600052 15.71700001
142946.85400009 485761.88199997 14.06400013
142947.56800079 485761.41600037 17.36400032
142946.66500092 485762.13700104 14.20400047
142954.15000153 485751.91999817 3.24000001
142955.27199936 485751.27799988 9.14400005
142954.05099869 485752.20399857 4.50000000
142954.01300049 485752.33599854 5.15799999
142953.58900070 485752.65800095 3.54600000
142954.41299820 485752.13199997 7.44999981
142953.74800110 485752.63700104 4.92500019
142953.40000153 485752.90200043 3.60700011
142954.09299850 485752.48600006 7.10599995
142953.24499893 485753.13299942 3.89299989
142952.37300110 485753.79800034 0.58499998
142953.91099930 485752.73099899 7.23600006
142953.25099945 485753.23400116 4.73799992
142953.04299927 485753.39300156 3.95400000
142954.61999893 485752.29000092 10.70699978
142953.60200119 485753.06900024 6.86299992
142953.20199966 485753.37500000 5.34999990
142954.74700165 485752.29800034 11.97999954
142955.10100174 485752.12699890 14.09700012
142953.52500153 485753.33399963 8.17000008
142954.56299973 485752.63499832 12.82499981
142953.98099899 485753.08000183 10.64200020
142953.07699966 485753.77199936 7.25099993
142954.22600174 485752.99599838 12.35400009
142953.93299866 485753.21799850 11.26099968
142953.02999878 485753.91199875 7.87900019
142952.24200058 485754.62300110 5.74599981
142953.36899948 485753.96099854 11.54599953
142952.13700104 485754.90800095 6.96199989
142953.28799820 485754.12900162 12.08100033
142952.32300186 485754.87400055 8.49499989
142952.05199814 485755.17699814 8.23600006
142949.89400101 485756.84400177 0.23300000
142952.86899948 485754.65000153 12.05399990
142952.22600174 485755.14500046 9.68000031
142951.97100067 485755.34299850 8.73299980
142949.61800003 485757.16099930 0.02400000
142952.71200180 485754.86500168 12.21199989
142951.95299911 485755.45199966 9.40699959
142952.29700089 485755.29299927 11.51700020
142950.04899979 485757.03499985 3.22600007
142952.84099960 485754.97399902 14.30799961
142952.09199905 485755.55500031 11.54899979
142949.66299820 485757.43899918 2.61199999
142952.63299942 485755.23199844 14.30700016
142951.87599945 485755.82099915 11.52700043
142949.59799957 485757.58900070 3.16000009
142952.54800034 485755.40100098 14.78400040
142949.74000168 485757.58200073 4.49599981
142952.84600067 485755.26699829 16.65200043
142949.58000183 485757.80899811 4.70100021
142952.58700180 485755.56399918 16.43300056
142952.43700027 485755.68099976 15.88799953
142951.88600159 485756.11000061 13.87399960
142949.71400070 485757.79999924 5.94000006
142949.37300110 485758.06700134 4.69299984
142952.69100189 485755.57899857 17.56699944
142952.10800171 485756.03400040 15.44699955
142949.99800110 485757.67900085 7.74800014
142949.63800049 485757.96099854 6.43200016
142949.24399948 485758.26800156 4.99800014
142950.53200150 485757.36600113 10.49100018
142949.56499863 485758.12200165 6.96799994
142949.43399811 485758.32899857 7.31899977
142951.82899857 485756.55099869 16.73800087
142951.40599823 485756.88100052 15.20499992
142951.94499969 485756.56399918 17.96699905
142951.55899811 485756.86600113 16.56699944
142950.94100189 485757.34899902 14.33500004
142949.88800049 485758.17300034 10.52999973
142949.63399887 485758.37400055 9.60299969
142951.96500015 485756.63999939 18.77400017
142951.39599991 485757.08700180 16.71400070
142949.62500000 485758.47399902 10.32199955
142951.45500183 485757.13800049 17.68400002
142951.51200104 485757.18199921 18.59399986
142947.12300110 485760.73899841 3.63499999
142948.05199814 485760.11000061 7.75400019
142947.99000168 485760.15800095 7.53700018
142947.41199875 485760.61399841 5.46400023
142947.11500168 485760.84700012 4.39699984
142950.38499832 485758.36700058 16.87599945
142949.68000031 485758.92399979 14.35000038
142950.30099869 485758.53300095 17.36100006
142949.94100189 485758.81900024 16.06999969
142950.54600143 485758.43500137 18.97599983
142949.86600113 485758.97399902 16.55200005
142950.20000076 485758.80099869 18.45100021
142949.61999893 485759.25999832 16.38400078
142948.08100128 485760.57199860 11.64900017
142949.88399887 485759.24399948 18.81800079
142949.73400116 485759.36100006 18.29199982
142948.95500183 485759.97800064 15.52499962
142948.40700150 485760.41400146 13.58199978
142949.17599869 485759.90599823 17.11400032
142948.25600052 485760.63499832 13.85999966
142949.10599899 485760.05300140 17.58499908
142947.77099991 485761.11500168 12.86400032
142948.51399994 485760.62799835 16.29400063
142948.98400116 485760.34400177 18.64699936
142947.65200043 485761.50000000 14.70300007
142947.21400070 485761.84799957 13.16899967
142948.47600174 485760.93299866 18.28499985
142948.06499863 485761.25999832 16.84900093
142947.64599991 485761.59299850 15.37600040
142947.40200043 485761.89099884 15.32199955
142947.30300140 485762.06800079 15.73600006
142947.17699814 485762.26499939 16.04299927
142954.39199829 485751.96300125 2.54299998
142954.28200150 485752.15499878 2.97300005
142955.30199814 485751.48699951 7.67399979
142955.45000076 485751.47200012 8.98999977
142955.39599991 485751.61800003 9.59399986
142955.23300171 485751.74100113 8.97700024
142954.69599915 485752.14799881 6.93599987
142954.49700165 485752.40299988 6.99499989
142953.91099930 485752.84999847 4.76999998
142954.36999893 485752.61199951 7.38899994
142954.16099930 485752.86999893 7.35400009
142953.18899918 485753.61000061 3.68099999
142952.55099869 485754.09600067 1.27400005
142953.20600128 485753.70700073 4.59800005
142952.45000076 485754.28400040 1.75300002
142954.93399811 485752.48500061 11.87699986
142953.94499969 485753.24200058 8.14999962
142953.56700134 485753.52899933 6.72900009
142955.13800049 485752.42900085 13.41600037
142954.70999908 485752.75699997 11.80700016
142954.66600037 485752.88899994 12.40600014
142954.16999817 485753.26800156 10.54899979
142953.13600159 485754.05799866 6.67199993
142955.16899872 485752.60900116 15.11999989
142954.41600037 485753.18700027 12.30000019
142953.97399902 485753.52500153 10.65100002
142953.79899979 485753.76399994 10.81599998
142954.68099976 485753.18700027 14.88500023
142953.68600082 485754.05500031 11.96899986
142953.19100189 485754.43500137 10.12899971
142952.68299866 485754.82600021 8.23999977
142952.42100143 485755.02600098 7.26599979
142953.75099945 485754.10599899 12.99699974
142953.00400162 485754.68000031 10.22200012
142952.43799973 485755.11600113 8.11699963
142953.25299835 485754.58300018 11.88000011
142952.46799850 485755.18799973 8.97299957
142951.97900009 485755.56399918 7.16099977
142953.09600067 485754.80599976 12.09000015
142952.92100143 485754.94100189 11.44299984
142952.03699875 485755.62300110 8.17599964
142952.90800095 485755.05300140 12.18200016
142950.70600128 485756.75400162 4.05200005
142953.42300034 485754.76200104 14.92800045
142953.13399887 485754.98500061 13.86699963
142952.66799927 485755.34700012 12.14299965
142953.06100082 485755.13499832 14.32100010
142952.97900009 485755.30599976 14.84399986
142952.70500183 485755.51800156 13.84000015
142950.37300110 485757.32600021 5.27699995
142949.59199905 485757.93199921 2.40799999
142952.89099884 485755.65999985 16.75200081
142952.15700150 485756.23099899 14.07100010
142952.57899857 485756.00699997 16.42799950
142952.26599884 485756.25199890 15.28699970
142950.31600189 485757.77099991 8.17599964
142949.24599838 485758.60499954 4.27400017
142949.04000092 485758.76399994 3.52800012
142949.33800125 485758.63600159 5.40799999
142948.91400146 485758.96500015 3.86999989
142948.50400162 485759.28699875 2.37299991
142948.32099915 485759.42900085 1.70299995
142949.66500092 485758.48199844 7.38000011
142950.91600037 485757.60499954 12.70400047
142949.57500076 485758.65299988 7.84299994
142952.24800110 485756.66299820 18.29800034
142951.97800064 485756.87500000 17.31599998
142949.47700119 485758.83000183 8.27700043
142951.97900009 485756.96400070 18.02799988
142951.39599991 485757.42100143 15.92300034
142950.10499954 485758.43199921 11.26200008
142949.35499954 485759.01900101 8.55000019
142948.78799820 485759.46300125 6.50299978
142951.59799957 485757.36000061 17.41699982
142951.18999863 485757.68000031 15.94799995
142950.11700058 485758.52199936 12.08300018
142951.55899811 485757.48899841 18.04800034
142950.16099930 485758.69100189 13.82600021
142949.84799957 485758.93700027 12.70100021
142949.68399811 485759.15900040 12.84200001
142948.40100098 485760.16799927 8.24499989
142950.53300095 485758.59299850 16.68799973
142950.22299957 485758.83800125 15.58199978
142950.05500031 485759.06299973 15.70699978
142948.55500031 485760.34099960 11.09399986
142947.91099930 485760.84899902 8.79800034
142949.85599899 485759.40700150 16.44899940
142949.36999893 485759.79100037 14.71800041
142948.38999939 485760.56499863 11.22999954
142949.94599915 485759.43999863 17.58099937
142949.62300110 485759.69599915 16.43099976
142950.11100006 485759.40700150 18.91900063
142949.24599838 485760.09099960 15.85299969
142949.92499924 485759.65100098 19.00699997
142949.33800125 485760.11500168 16.93600082
142949.36800003 485760.18799973 17.79000092
142949.37599945 485760.27999878 18.56900024
142949.13199997 485760.47100067 17.71400070
142948.72299957 485760.79600143 16.27300072
142948.79399872 485760.83100128 17.22699928
142948.42399979 485761.12400055 15.92099953
142947.32400131 485762.00000000 12.04800034
142948.70100021 485760.99800110 17.62800026
142948.29999924 485761.31800079 16.21699905
142947.83800125 485761.68700027 14.59000015
142948.66500092 485761.12699890 18.25799942
142948.19499969 485761.50099945 16.61499977
142947.69699860 485761.89799881 14.86499977
142948.54700089 485761.32099915 18.62999916
142947.48600006 485762.16699982 14.91800022
142947.31600189 485762.39599991 15.03999996
142947.19499969 485762.59299850 15.40299988
142956.01800156 485751.24800110 8.95600033
142955.81900024 485751.49599838 8.95899963
142955.69499969 485751.59000015 8.48799992
142955.62099838 485751.75000000 9.00399971
142955.29399872 485751.99700165 7.76200008
142955.29299927 485752.10300064 8.57400036
142955.42800140 485752.11100006 9.93500042
142953.51599884 485753.66199875 3.45799994
142954.70299911 485752.87099838 8.80700016
142954.15299988 485753.38700104 7.50099993
142952.52299881 485754.73300171 2.16199994
142954.81700134 485753.07699966 11.53899956
142955.55099869 485752.62500000 15.13000011
142955.32500076 485752.79899979 14.28100014
142954.77700043 485753.21699905 12.23099995
142954.25299835 485753.61800003 10.26599979
142955.39400101 485752.84600067 15.34000015
142954.99200058 485753.15499878 13.83699989
142954.08900070 485753.84700012 10.46100044
142953.10100174 485754.60400009 6.76399994
142952.81600189 485754.92699814 6.50400019
142951.30500031 485756.08599854 0.86400002
142952.52399826 485755.25400162 6.21899986
142954.98199844 485753.46699905 16.16399956
142953.24499893 485754.80099869 9.70800018
142952.91799927 485755.05400085 8.48900032
142952.25000000 485755.56700134 6.00500011
142953.94200134 485754.36100006 13.02999973
142953.18600082 485754.94300079 10.22599983
142952.82500076 485755.22100067 8.88500023
142952.44699860 485755.51200104 7.48000002
142952.02099991 485755.84000015 5.90199995
142954.01200104 485754.40499878 14.05799961
142953.75299835 485754.60499954 13.10000038
142952.36700058 485755.67300034 7.96400023
142951.61299896 485756.25600052 5.17000008
142953.44300079 485754.94699860 12.75100040
142952.55199814 485755.63399887 9.45800018
142952.22399902 485755.88800049 8.24300003
